   1.1110000e+06  -1.6000000e+04   3.0299434e+01
   1.1110000e+06  -1.5000000e+04   3.0299434e+01
   1.1110000e+06  -1.4000000e+04   3.0299434e+01
   1.1110000e+06  -1.3000000e+04   3.0299434e+01
   1.1110000e+06  -1.2000000e+04   3.0299434e+01
   1.1110000e+06  -1.1000000e+04   3.0299434e+01
   1.1110000e+06  -1.0000000e+04   3.0299434e+01
   1.1110000e+06  -9.0000000e+03   3.0299434e+01
   1.1110000e+06  -8.0000000e+03   3.0299434e+01
   1.1110000e+06  -7.0000000e+03   3.0299434e+01
   1.1110000e+06  -6.0000000e+03   3.0299434e+01
   1.1110000e+06  -5.0000000e+03   3.0299434e+01
   1.1110000e+06  -4.0000000e+03   3.0299434e+01
   1.1110000e+06  -3.0000000e+03   3.0299434e+01
   1.1110000e+06  -2.0000000e+03   3.0299434e+01
   1.1110000e+06  -1.0000000e+03   3.0299434e+01
   1.1110000e+06   0.0000000e+00   3.0299434e+01
   1.1110000e+06   1.0000000e+03   3.0299434e+01
   1.1110000e+06   2.0000000e+03   3.0299434e+01
   1.1110000e+06   3.0000000e+03   3.0299434e+01
   1.1110000e+06   4.0000000e+03   3.0299434e+01
   1.1110000e+06   5.0000000e+03   3.0299434e+01
   1.1110000e+06   6.0000000e+03   3.0299434e+01
   1.1110000e+06   7.0000000e+03   3.0299434e+01
   1.1110000e+06   8.0000000e+03   3.0299434e+01
   1.1110000e+06   9.0000000e+03   3.0299434e+01
   1.1110000e+06   1.0000000e+04   3.0299434e+01
   1.1110000e+06   1.1000000e+04   3.0299434e+01
   1.1110000e+06   1.2000000e+04   3.0299434e+01
   1.1110000e+06   1.3000000e+04   3.0299434e+01
   1.1110000e+06   1.4000000e+04   3.0299434e+01
   1.1110000e+06   1.5000000e+04   3.0299434e+01
   1.1110000e+06   1.6000000e+04   3.0299434e+01
   1.1110000e+06   1.7000000e+04   3.0299434e+01
   1.1110000e+06   1.8000000e+04   3.0299434e+01
   1.1110000e+06   1.9000000e+04   3.0299434e+01
   1.1110000e+06   2.0000000e+04   3.0299434e+01
   1.1110000e+06   2.1000000e+04   3.0299434e+01
   1.1110000e+06   2.2000000e+04   3.0299434e+01
   1.1110000e+06   2.3000000e+04   3.0299434e+01
   1.1110000e+06   2.4000000e+04   3.0299434e+01
   1.1110000e+06   2.5000000e+04   3.0299434e+01
   1.1120000e+06  -2.5000000e+04   3.0213035e+01
   1.1120000e+06  -2.4000000e+04   3.0213035e+01
   1.1120000e+06  -2.3000000e+04   3.0213035e+01
   1.1120000e+06  -2.2000000e+04   3.0213035e+01
   1.1120000e+06  -2.1000000e+04   3.0213035e+01
   1.1120000e+06  -2.0000000e+04   3.0213035e+01
   1.1120000e+06  -1.9000000e+04   3.0213035e+01
   1.1120000e+06  -1.8000000e+04   3.0213035e+01
   1.1120000e+06  -1.7000000e+04   3.0213035e+01
   1.1120000e+06  -1.6000000e+04   3.0213035e+01
   1.1120000e+06  -1.5000000e+04   3.0213035e+01
   1.1120000e+06  -1.4000000e+04   3.0213035e+01
   1.1120000e+06  -1.3000000e+04   3.0213035e+01
   1.1120000e+06  -1.2000000e+04   3.0213035e+01
   1.1120000e+06  -1.1000000e+04   3.0213035e+01
   1.1120000e+06  -1.0000000e+04   3.0213035e+01
   1.1120000e+06  -9.0000000e+03   3.0213035e+01
   1.1120000e+06  -8.0000000e+03   3.0213035e+01
   1.1120000e+06  -7.0000000e+03   3.0213035e+01
   1.1120000e+06  -6.0000000e+03   3.0213035e+01
   1.1120000e+06  -5.0000000e+03   3.0213035e+01
   1.1120000e+06  -4.0000000e+03   3.0213035e+01
   1.1120000e+06  -3.0000000e+03   3.0213035e+01
   1.1120000e+06  -2.0000000e+03   3.0213035e+01
   1.1120000e+06  -1.0000000e+03   3.0213035e+01
   1.1120000e+06   0.0000000e+00   3.0213035e+01
   1.1120000e+06   1.0000000e+03   3.0213035e+01
   1.1120000e+06   2.0000000e+03   3.0213035e+01
   1.1120000e+06   3.0000000e+03   3.0213035e+01
   1.1120000e+06   4.0000000e+03   3.0213035e+01
   1.1120000e+06   5.0000000e+03   3.0213035e+01
   1.1120000e+06   6.0000000e+03   3.0213035e+01
   1.1120000e+06   7.0000000e+03   3.0213035e+01
   1.1120000e+06   8.0000000e+03   3.0213035e+01
   1.1120000e+06   9.0000000e+03   3.0213035e+01
   1.1120000e+06   1.0000000e+04   3.0213035e+01
   1.1120000e+06   1.1000000e+04   3.0213035e+01
   1.1120000e+06   1.2000000e+04   3.0213035e+01
   1.1120000e+06   1.3000000e+04   3.0213035e+01
   1.1120000e+06   1.4000000e+04   3.0213035e+01
   1.1120000e+06   1.5000000e+04   3.0213035e+01
   1.1120000e+06   1.6000000e+04   3.0213035e+01
   1.1120000e+06   1.7000000e+04   3.0213035e+01
   1.1120000e+06   1.8000000e+04   3.0213035e+01
   1.1120000e+06   1.9000000e+04   3.0213035e+01
   1.1120000e+06   2.0000000e+04   3.0213035e+01
   1.1120000e+06   2.1000000e+04   3.0213035e+01
   1.1120000e+06   2.2000000e+04   3.0213035e+01
   1.1120000e+06   2.3000000e+04   3.0213035e+01
   1.1120000e+06   2.4000000e+04   3.0213035e+01
   1.1120000e+06   2.5000000e+04   3.0213035e+01
   1.1130000e+06  -2.5000000e+04   3.0128088e+01
   1.1130000e+06  -2.4000000e+04   3.0128088e+01
   1.1130000e+06  -2.3000000e+04   3.0128088e+01
   1.1130000e+06  -2.2000000e+04   3.0128088e+01
   1.1130000e+06  -2.1000000e+04   3.0128088e+01
   1.1130000e+06  -2.0000000e+04   3.0128088e+01
   1.1130000e+06  -1.9000000e+04   3.0128088e+01
   1.1130000e+06  -1.8000000e+04   3.0128088e+01
   1.1130000e+06  -1.7000000e+04   3.0128088e+01
   1.1130000e+06  -1.6000000e+04   3.0128088e+01
   1.1130000e+06  -1.5000000e+04   3.0128088e+01
   1.1130000e+06  -1.4000000e+04   3.0128088e+01
   1.1130000e+06  -1.3000000e+04   3.0128088e+01
   1.1130000e+06  -1.2000000e+04   3.0128088e+01
   1.1130000e+06  -1.1000000e+04   3.0128088e+01
   1.1130000e+06  -1.0000000e+04   3.0128088e+01
   1.1130000e+06  -9.0000000e+03   3.0128088e+01
   1.1130000e+06  -8.0000000e+03   3.0128088e+01
   1.1130000e+06  -7.0000000e+03   3.0128088e+01
   1.1130000e+06  -6.0000000e+03   3.0128088e+01
   1.1130000e+06  -5.0000000e+03   3.0128088e+01
   1.1130000e+06  -4.0000000e+03   3.0128088e+01
   1.1130000e+06  -3.0000000e+03   3.0128088e+01
   1.1130000e+06  -2.0000000e+03   3.0128088e+01
   1.1130000e+06  -1.0000000e+03   3.0128088e+01
   1.1130000e+06   0.0000000e+00   3.0128088e+01
   1.1130000e+06   1.0000000e+03   3.0128088e+01
   1.1130000e+06   2.0000000e+03   3.0128088e+01
   1.1130000e+06   3.0000000e+03   3.0128088e+01
   1.1130000e+06   4.0000000e+03   3.0128088e+01
   1.1130000e+06   5.0000000e+03   3.0128088e+01
   1.1130000e+06   6.0000000e+03   3.0128088e+01
   1.1130000e+06   7.0000000e+03   3.0128088e+01
   1.1130000e+06   8.0000000e+03   3.0128088e+01
   1.1130000e+06   9.0000000e+03   3.0128088e+01
   1.1130000e+06   1.0000000e+04   3.0128088e+01
   1.1130000e+06   1.1000000e+04   3.0128088e+01
   1.1130000e+06   1.2000000e+04   3.0128088e+01
   1.1130000e+06   1.3000000e+04   3.0128088e+01
   1.1130000e+06   1.4000000e+04   3.0128088e+01
   1.1130000e+06   1.5000000e+04   3.0128088e+01
   1.1130000e+06   1.6000000e+04   3.0128088e+01
   1.1130000e+06   1.7000000e+04   3.0128088e+01
   1.1130000e+06   1.8000000e+04   3.0128088e+01
   1.1130000e+06   1.9000000e+04   3.0128088e+01
   1.1130000e+06   2.0000000e+04   3.0128088e+01
   1.1130000e+06   2.1000000e+04   3.0128088e+01
   1.1130000e+06   2.2000000e+04   3.0128088e+01
   1.1130000e+06   2.3000000e+04   3.0128088e+01
   1.1130000e+06   2.4000000e+04   3.0128088e+01
   1.1130000e+06   2.5000000e+04   3.0128088e+01
   1.1140000e+06  -2.5000000e+04   3.0045160e+01
   1.1140000e+06  -2.4000000e+04   3.0045160e+01
   1.1140000e+06  -2.3000000e+04   3.0045160e+01
   1.1140000e+06  -2.2000000e+04   3.0045160e+01
   1.1140000e+06  -2.1000000e+04   3.0045160e+01
   1.1140000e+06  -2.0000000e+04   3.0045160e+01
   1.1140000e+06  -1.9000000e+04   3.0045160e+01
   1.1140000e+06  -1.8000000e+04   3.0045160e+01
   1.1140000e+06  -1.7000000e+04   3.0045160e+01
   1.1140000e+06  -1.6000000e+04   3.0045160e+01
   1.1140000e+06  -1.5000000e+04   3.0045160e+01
   1.1140000e+06  -1.4000000e+04   3.0045160e+01
   1.1140000e+06  -1.3000000e+04   3.0045160e+01
   1.1140000e+06  -1.2000000e+04   3.0045160e+01
   1.1140000e+06  -1.1000000e+04   3.0045160e+01
   1.1140000e+06  -1.0000000e+04   3.0045160e+01
   1.1140000e+06  -9.0000000e+03   3.0045160e+01
   1.1140000e+06  -8.0000000e+03   3.0045160e+01
   1.1140000e+06  -7.0000000e+03   3.0045160e+01
   1.1140000e+06  -6.0000000e+03   3.0045160e+01
   1.1140000e+06  -5.0000000e+03   3.0045160e+01
   1.1140000e+06  -4.0000000e+03   3.0045160e+01
   1.1140000e+06  -3.0000000e+03   3.0045160e+01
   1.1140000e+06  -2.0000000e+03   3.0045160e+01
   1.1140000e+06  -1.0000000e+03   3.0045160e+01
   1.1140000e+06   0.0000000e+00   3.0045160e+01
   1.1140000e+06   1.0000000e+03   3.0045160e+01
   1.1140000e+06   2.0000000e+03   3.0045160e+01
   1.1140000e+06   3.0000000e+03   3.0045160e+01
   1.1140000e+06   4.0000000e+03   3.0045160e+01
   1.1140000e+06   5.0000000e+03   3.0045160e+01
   1.1140000e+06   6.0000000e+03   3.0045160e+01
   1.1140000e+06   7.0000000e+03   3.0045160e+01
   1.1140000e+06   8.0000000e+03   3.0045160e+01
   1.1140000e+06   9.0000000e+03   3.0045160e+01
   1.1140000e+06   1.0000000e+04   3.0045160e+01
   1.1140000e+06   1.1000000e+04   3.0045160e+01
   1.1140000e+06   1.2000000e+04   3.0045160e+01
   1.1140000e+06   1.3000000e+04   3.0045160e+01
   1.1140000e+06   1.4000000e+04   3.0045160e+01
   1.1140000e+06   1.5000000e+04   3.0045160e+01
   1.1140000e+06   1.6000000e+04   3.0045160e+01
   1.1140000e+06   1.7000000e+04   3.0045160e+01
   1.1140000e+06   1.8000000e+04   3.0045160e+01
   1.1140000e+06   1.9000000e+04   3.0045160e+01
   1.1140000e+06   2.0000000e+04   3.0045160e+01
   1.1140000e+06   2.1000000e+04   3.0045160e+01
   1.1140000e+06   2.2000000e+04   3.0045160e+01
   1.1140000e+06   2.3000000e+04   3.0045160e+01
   1.1140000e+06   2.4000000e+04   3.0045160e+01
   1.1140000e+06   2.5000000e+04   3.0045160e+01
   1.1150000e+06  -2.5000000e+04   2.9964587e+01
   1.1150000e+06  -2.4000000e+04   2.9964587e+01
   1.1150000e+06  -2.3000000e+04   2.9964587e+01
   1.1150000e+06  -2.2000000e+04   2.9964587e+01
   1.1150000e+06  -2.1000000e+04   2.9964587e+01
   1.1150000e+06  -2.0000000e+04   2.9964587e+01
   1.1150000e+06  -1.9000000e+04   2.9964587e+01
   1.1150000e+06  -1.8000000e+04   2.9964587e+01
   1.1150000e+06  -1.7000000e+04   2.9964587e+01
   1.1150000e+06  -1.6000000e+04   2.9964587e+01
   1.1150000e+06  -1.5000000e+04   2.9964587e+01
   1.1150000e+06  -1.4000000e+04   2.9964587e+01
   1.1150000e+06  -1.3000000e+04   2.9964587e+01
   1.1150000e+06  -1.2000000e+04   2.9964587e+01
   1.1150000e+06  -1.1000000e+04   2.9964587e+01
   1.1150000e+06  -1.0000000e+04   2.9964587e+01
   1.1150000e+06  -9.0000000e+03   2.9964587e+01
   1.1150000e+06  -8.0000000e+03   2.9964587e+01
   1.1150000e+06  -7.0000000e+03   2.9964587e+01
   1.1150000e+06  -6.0000000e+03   2.9964587e+01
   1.1150000e+06  -5.0000000e+03   2.9964587e+01
   1.1150000e+06  -4.0000000e+03   2.9964587e+01
   1.1150000e+06  -3.0000000e+03   2.9964587e+01
   1.1150000e+06  -2.0000000e+03   2.9964587e+01
   1.1150000e+06  -1.0000000e+03   2.9964587e+01
   1.1150000e+06   0.0000000e+00   2.9964587e+01
   1.1150000e+06   1.0000000e+03   2.9964587e+01
   1.1150000e+06   2.0000000e+03   2.9964587e+01
   1.1150000e+06   3.0000000e+03   2.9964587e+01
   1.1150000e+06   4.0000000e+03   2.9964587e+01
   1.1150000e+06   5.0000000e+03   2.9964587e+01
   1.1150000e+06   6.0000000e+03   2.9964587e+01
   1.1150000e+06   7.0000000e+03   2.9964587e+01
   1.1150000e+06   8.0000000e+03   2.9964587e+01
   1.1150000e+06   9.0000000e+03   2.9964587e+01
   1.1150000e+06   1.0000000e+04   2.9964587e+01
   1.1150000e+06   1.1000000e+04   2.9964587e+01
   1.1150000e+06   1.2000000e+04   2.9964587e+01
   1.1150000e+06   1.3000000e+04   2.9964587e+01
   1.1150000e+06   1.4000000e+04   2.9964587e+01
   1.1150000e+06   1.5000000e+04   2.9964587e+01
   1.1150000e+06   1.6000000e+04   2.9964587e+01
   1.1150000e+06   1.7000000e+04   2.9964587e+01
   1.1150000e+06   1.8000000e+04   2.9964587e+01
   1.1150000e+06   1.9000000e+04   2.9964587e+01
   1.1150000e+06   2.0000000e+04   2.9964587e+01
   1.1150000e+06   2.1000000e+04   2.9964587e+01
   1.1150000e+06   2.2000000e+04   2.9964587e+01
   1.1150000e+06   2.3000000e+04   2.9964587e+01
   1.1150000e+06   2.4000000e+04   2.9964587e+01
   1.1150000e+06   2.5000000e+04   2.9964587e+01
   1.1160000e+06  -2.5000000e+04   2.9885944e+01
   1.1160000e+06  -2.4000000e+04   2.9885944e+01
   1.1160000e+06  -2.3000000e+04   2.9885944e+01
   1.1160000e+06  -2.2000000e+04   2.9885944e+01
   1.1160000e+06  -2.1000000e+04   2.9885944e+01
   1.1160000e+06  -2.0000000e+04   2.9885944e+01
   1.1160000e+06  -1.9000000e+04   2.9885944e+01
   1.1160000e+06  -1.8000000e+04   2.9885944e+01
   1.1160000e+06  -1.7000000e+04   2.9885944e+01
   1.1160000e+06  -1.6000000e+04   2.9885944e+01
   1.1160000e+06  -1.5000000e+04   2.9885944e+01
   1.1160000e+06  -1.4000000e+04   2.9885944e+01
   1.1160000e+06  -1.3000000e+04   2.9885944e+01
   1.1160000e+06  -1.2000000e+04   2.9885944e+01
   1.1160000e+06  -1.1000000e+04   2.9885944e+01
   1.1160000e+06  -1.0000000e+04   2.9885944e+01
   1.1160000e+06  -9.0000000e+03   2.9885944e+01
   1.1160000e+06  -8.0000000e+03   2.9885944e+01
   1.1160000e+06  -7.0000000e+03   2.9885944e+01
   1.1160000e+06  -6.0000000e+03   2.9885944e+01
   1.1160000e+06  -5.0000000e+03   2.9885944e+01
   1.1160000e+06  -4.0000000e+03   2.9885944e+01
   1.1160000e+06  -3.0000000e+03   2.9885944e+01
   1.1160000e+06  -2.0000000e+03   2.9885944e+01
   1.1160000e+06  -1.0000000e+03   2.9885944e+01
   1.1160000e+06   0.0000000e+00   2.9885944e+01
   1.1160000e+06   1.0000000e+03   2.9885944e+01
   1.1160000e+06   2.0000000e+03   2.9885944e+01
   1.1160000e+06   3.0000000e+03   2.9885944e+01
   1.1160000e+06   4.0000000e+03   2.9885944e+01
   1.1160000e+06   5.0000000e+03   2.9885944e+01
   1.1160000e+06   6.0000000e+03   2.9885944e+01
   1.1160000e+06   7.0000000e+03   2.9885944e+01
   1.1160000e+06   8.0000000e+03   2.9885944e+01
   1.1160000e+06   9.0000000e+03   2.9885944e+01
   1.1160000e+06   1.0000000e+04   2.9885944e+01
   1.1160000e+06   1.1000000e+04   2.9885944e+01
   1.1160000e+06   1.2000000e+04   2.9885944e+01
   1.1160000e+06   1.3000000e+04   2.9885944e+01
   1.1160000e+06   1.4000000e+04   2.9885944e+01
   1.1160000e+06   1.5000000e+04   2.9885944e+01
   1.1160000e+06   1.6000000e+04   2.9885944e+01
   1.1160000e+06   1.7000000e+04   2.9885944e+01
   1.1160000e+06   1.8000000e+04   2.9885944e+01
   1.1160000e+06   1.9000000e+04   2.9885944e+01
   1.1160000e+06   2.0000000e+04   2.9885944e+01
   1.1160000e+06   2.1000000e+04   2.9885944e+01
   1.1160000e+06   2.2000000e+04   2.9885944e+01
   1.1160000e+06   2.3000000e+04   2.9885944e+01
   1.1160000e+06   2.4000000e+04   2.9885944e+01
   1.1160000e+06   2.5000000e+04   2.9885944e+01
   1.1170000e+06  -2.5000000e+04   2.9808717e+01
   1.1170000e+06  -2.4000000e+04   2.9808717e+01
   1.1170000e+06  -2.3000000e+04   2.9808717e+01
   1.1170000e+06  -2.2000000e+04   2.9808717e+01
   1.1170000e+06  -2.1000000e+04   2.9808717e+01
   1.1170000e+06  -2.0000000e+04   2.9808717e+01
   1.1170000e+06  -1.9000000e+04   2.9808717e+01
   1.1170000e+06  -1.8000000e+04   2.9808717e+01
   1.1170000e+06  -1.7000000e+04   2.9808717e+01
   1.1170000e+06  -1.6000000e+04   2.9808717e+01
   1.1170000e+06  -1.5000000e+04   2.9808717e+01
   1.1170000e+06  -1.4000000e+04   2.9808717e+01
   1.1170000e+06  -1.3000000e+04   2.9808717e+01
   1.1170000e+06  -1.2000000e+04   2.9808717e+01
   1.1170000e+06  -1.1000000e+04   2.9808717e+01
   1.1170000e+06  -1.0000000e+04   2.9808717e+01
   1.1170000e+06  -9.0000000e+03   2.9808717e+01
   1.1170000e+06  -8.0000000e+03   2.9808717e+01
   1.1170000e+06  -7.0000000e+03   2.9808717e+01
   1.1170000e+06  -6.0000000e+03   2.9808717e+01
   1.1170000e+06  -5.0000000e+03   2.9808717e+01
   1.1170000e+06  -4.0000000e+03   2.9808717e+01
   1.1170000e+06  -3.0000000e+03   2.9808717e+01
   1.1170000e+06  -2.0000000e+03   2.9808717e+01
   1.1170000e+06  -1.0000000e+03   2.9808717e+01
   1.1170000e+06   0.0000000e+00   2.9808717e+01
   1.1170000e+06   1.0000000e+03   2.9808717e+01
   1.1170000e+06   2.0000000e+03   2.9808717e+01
   1.1170000e+06   3.0000000e+03   2.9808717e+01
   1.1170000e+06   4.0000000e+03   2.9808717e+01
   1.1170000e+06   5.0000000e+03   2.9808717e+01
   1.1170000e+06   6.0000000e+03   2.9808717e+01
   1.1170000e+06   7.0000000e+03   2.9808717e+01
   1.1170000e+06   8.0000000e+03   2.9808717e+01
   1.1170000e+06   9.0000000e+03   2.9808717e+01
   1.1170000e+06   1.0000000e+04   2.9808717e+01
   1.1170000e+06   1.1000000e+04   2.9808717e+01
   1.1170000e+06   1.2000000e+04   2.9808717e+01
   1.1170000e+06   1.3000000e+04   2.9808717e+01
   1.1170000e+06   1.4000000e+04   2.9808717e+01
   1.1170000e+06   1.5000000e+04   2.9808717e+01
   1.1170000e+06   1.6000000e+04   2.9808717e+01
   1.1170000e+06   1.7000000e+04   2.9808717e+01
   1.1170000e+06   1.8000000e+04   2.9808717e+01
   1.1170000e+06   1.9000000e+04   2.9808717e+01
   1.1170000e+06   2.0000000e+04   2.9808717e+01
   1.1170000e+06   2.1000000e+04   2.9808717e+01
   1.1170000e+06   2.2000000e+04   2.9808717e+01
   1.1170000e+06   2.3000000e+04   2.9808717e+01
   1.1170000e+06   2.4000000e+04   2.9808717e+01
   1.1170000e+06   2.5000000e+04   2.9808717e+01
   1.1180000e+06  -2.5000000e+04   2.9732394e+01
   1.1180000e+06  -2.4000000e+04   2.9732394e+01
   1.1180000e+06  -2.3000000e+04   2.9732394e+01
   1.1180000e+06  -2.2000000e+04   2.9732394e+01
   1.1180000e+06  -2.1000000e+04   2.9732394e+01
   1.1180000e+06  -2.0000000e+04   2.9732394e+01
   1.1180000e+06  -1.9000000e+04   2.9732394e+01
   1.1180000e+06  -1.8000000e+04   2.9732394e+01
   1.1180000e+06  -1.7000000e+04   2.9732394e+01
   1.1180000e+06  -1.6000000e+04   2.9732394e+01
   1.1180000e+06  -1.5000000e+04   2.9732394e+01
   1.1180000e+06  -1.4000000e+04   2.9732394e+01
   1.1180000e+06  -1.3000000e+04   2.9732394e+01
   1.1180000e+06  -1.2000000e+04   2.9732394e+01
   1.1180000e+06  -1.1000000e+04   2.9732394e+01
   1.1180000e+06  -1.0000000e+04   2.9732394e+01
   1.1180000e+06  -9.0000000e+03   2.9732394e+01
   1.1180000e+06  -8.0000000e+03   2.9732394e+01
   1.1180000e+06  -7.0000000e+03   2.9732394e+01
   1.1180000e+06  -6.0000000e+03   2.9732394e+01
   1.1180000e+06  -5.0000000e+03   2.9732394e+01
   1.1180000e+06  -4.0000000e+03   2.9732394e+01
   1.1180000e+06  -3.0000000e+03   2.9732394e+01
   1.1180000e+06  -2.0000000e+03   2.9732394e+01
   1.1180000e+06  -1.0000000e+03   2.9732394e+01
   1.1180000e+06   0.0000000e+00   2.9732394e+01
   1.1180000e+06   1.0000000e+03   2.9732394e+01
   1.1180000e+06   2.0000000e+03   2.9732394e+01
   1.1180000e+06   3.0000000e+03   2.9732394e+01
   1.1180000e+06   4.0000000e+03   2.9732394e+01
   1.1180000e+06   5.0000000e+03   2.9732394e+01
   1.1180000e+06   6.0000000e+03   2.9732394e+01
   1.1180000e+06   7.0000000e+03   2.9732394e+01
   1.1180000e+06   8.0000000e+03   2.9732394e+01
   1.1180000e+06   9.0000000e+03   2.9732394e+01
   1.1180000e+06   1.0000000e+04   2.9732394e+01
   1.1180000e+06   1.1000000e+04   2.9732394e+01
   1.1180000e+06   1.2000000e+04   2.9732394e+01
   1.1180000e+06   1.3000000e+04   2.9732394e+01
   1.1180000e+06   1.4000000e+04   2.9732394e+01
   1.1180000e+06   1.5000000e+04   2.9732394e+01
   1.1180000e+06   1.6000000e+04   2.9732394e+01
   1.1180000e+06   1.7000000e+04   2.9732394e+01
   1.1180000e+06   1.8000000e+04   2.9732394e+01
   1.1180000e+06   1.9000000e+04   2.9732394e+01
   1.1180000e+06   2.0000000e+04   2.9732394e+01
   1.1180000e+06   2.1000000e+04   2.9732394e+01
   1.1180000e+06   2.2000000e+04   2.9732394e+01
   1.1180000e+06   2.3000000e+04   2.9732394e+01
   1.1180000e+06   2.4000000e+04   2.9732394e+01
   1.1180000e+06   2.5000000e+04   2.9732394e+01
   1.1190000e+06  -2.5000000e+04   2.9656724e+01
   1.1190000e+06  -2.4000000e+04   2.9656724e+01
   1.1190000e+06  -2.3000000e+04   2.9656724e+01
   1.1190000e+06  -2.2000000e+04   2.9656724e+01
   1.1190000e+06  -2.1000000e+04   2.9656724e+01
   1.1190000e+06  -2.0000000e+04   2.9656724e+01
   1.1190000e+06  -1.9000000e+04   2.9656724e+01
   1.1190000e+06  -1.8000000e+04   2.9656724e+01
   1.1190000e+06  -1.7000000e+04   2.9656724e+01
   1.1190000e+06  -1.6000000e+04   2.9656724e+01
   1.1190000e+06  -1.5000000e+04   2.9656724e+01
   1.1190000e+06  -1.4000000e+04   2.9656724e+01
   1.1190000e+06  -1.3000000e+04   2.9656724e+01
   1.1190000e+06  -1.2000000e+04   2.9656724e+01
   1.1190000e+06  -1.1000000e+04   2.9656724e+01
   1.1190000e+06  -1.0000000e+04   2.9656724e+01
   1.1190000e+06  -9.0000000e+03   2.9656724e+01
   1.1190000e+06  -8.0000000e+03   2.9656724e+01
   1.1190000e+06  -7.0000000e+03   2.9656724e+01
   1.1190000e+06  -6.0000000e+03   2.9656724e+01
   1.1190000e+06  -5.0000000e+03   2.9656724e+01
   1.1190000e+06  -4.0000000e+03   2.9656724e+01
   1.1190000e+06  -3.0000000e+03   2.9656724e+01
   1.1190000e+06  -2.0000000e+03   2.9656724e+01
   1.1190000e+06  -1.0000000e+03   2.9656724e+01
   1.1190000e+06   0.0000000e+00   2.9656724e+01
   1.1190000e+06   1.0000000e+03   2.9656724e+01
   1.1190000e+06   2.0000000e+03   2.9656724e+01
   1.1190000e+06   3.0000000e+03   2.9656724e+01
   1.1190000e+06   4.0000000e+03   2.9656724e+01
   1.1190000e+06   5.0000000e+03   2.9656724e+01
   1.1190000e+06   6.0000000e+03   2.9656724e+01
   1.1190000e+06   7.0000000e+03   2.9656724e+01
   1.1190000e+06   8.0000000e+03   2.9656724e+01
   1.1190000e+06   9.0000000e+03   2.9656724e+01
   1.1190000e+06   1.0000000e+04   2.9656724e+01
   1.1190000e+06   1.1000000e+04   2.9656724e+01
   1.1190000e+06   1.2000000e+04   2.9656724e+01
   1.1190000e+06   1.3000000e+04   2.9656724e+01
   1.1190000e+06   1.4000000e+04   2.9656724e+01
   1.1190000e+06   1.5000000e+04   2.9656724e+01
   1.1190000e+06   1.6000000e+04   2.9656724e+01
   1.1190000e+06   1.7000000e+04   2.9656724e+01
   1.1190000e+06   1.8000000e+04   2.9656724e+01
   1.1190000e+06   1.9000000e+04   2.9656724e+01
   1.1190000e+06   2.0000000e+04   2.9656724e+01
   1.1190000e+06   2.1000000e+04   2.9656724e+01
   1.1190000e+06   2.2000000e+04   2.9656724e+01
   1.1190000e+06   2.3000000e+04   2.9656724e+01
   1.1190000e+06   2.4000000e+04   2.9656724e+01
   1.1190000e+06   2.5000000e+04   2.9656724e+01
   1.1200000e+06  -2.5000000e+04   2.9582001e+01
   1.1200000e+06  -2.4000000e+04   2.9582001e+01
   1.1200000e+06  -2.3000000e+04   2.9582001e+01
   1.1200000e+06  -2.2000000e+04   2.9582001e+01
   1.1200000e+06  -2.1000000e+04   2.9582001e+01
   1.1200000e+06  -2.0000000e+04   2.9582001e+01
   1.1200000e+06  -1.9000000e+04   2.9582001e+01
   1.1200000e+06  -1.8000000e+04   2.9582001e+01
   1.1200000e+06  -1.7000000e+04   2.9582001e+01
   1.1200000e+06  -1.6000000e+04   2.9582001e+01
   1.1200000e+06  -1.5000000e+04   2.9582001e+01
   1.1200000e+06  -1.4000000e+04   2.9582001e+01
   1.1200000e+06  -1.3000000e+04   2.9582001e+01
   1.1200000e+06  -1.2000000e+04   2.9582001e+01
   1.1200000e+06  -1.1000000e+04   2.9582001e+01
   1.1200000e+06  -1.0000000e+04   2.9582001e+01
   1.1200000e+06  -9.0000000e+03   2.9582001e+01
   1.1200000e+06  -8.0000000e+03   2.9582001e+01
   1.1200000e+06  -7.0000000e+03   2.9582001e+01
   1.1200000e+06  -6.0000000e+03   2.9582001e+01
   1.1200000e+06  -5.0000000e+03   2.9582001e+01
   1.1200000e+06  -4.0000000e+03   2.9582001e+01
   1.1200000e+06  -3.0000000e+03   2.9582001e+01
   1.1200000e+06  -2.0000000e+03   2.9582001e+01
   1.1200000e+06  -1.0000000e+03   2.9582001e+01
   1.1200000e+06   0.0000000e+00   2.9582001e+01
   1.1200000e+06   1.0000000e+03   2.9582001e+01
   1.1200000e+06   2.0000000e+03   2.9582001e+01
   1.1200000e+06   3.0000000e+03   2.9582001e+01
   1.1200000e+06   4.0000000e+03   2.9582001e+01
   1.1200000e+06   5.0000000e+03   2.9582001e+01
   1.1200000e+06   6.0000000e+03   2.9582001e+01
   1.1200000e+06   7.0000000e+03   2.9582001e+01
   1.1200000e+06   8.0000000e+03   2.9582001e+01
   1.1200000e+06   9.0000000e+03   2.9582001e+01
   1.1200000e+06   1.0000000e+04   2.9582001e+01
   1.1200000e+06   1.1000000e+04   2.9582001e+01
   1.1200000e+06   1.2000000e+04   2.9582001e+01
   1.1200000e+06   1.3000000e+04   2.9582001e+01
   1.1200000e+06   1.4000000e+04   2.9582001e+01
   1.1200000e+06   1.5000000e+04   2.9582001e+01
   1.1200000e+06   1.6000000e+04   2.9582001e+01
   1.1200000e+06   1.7000000e+04   2.9582001e+01
   1.1200000e+06   1.8000000e+04   2.9582001e+01
   1.1200000e+06   1.9000000e+04   2.9582001e+01
   1.1200000e+06   2.0000000e+04   2.9582001e+01
   1.1200000e+06   2.1000000e+04   2.9582001e+01
   1.1200000e+06   2.2000000e+04   2.9582001e+01
   1.1200000e+06   2.3000000e+04   2.9582001e+01
   1.1200000e+06   2.4000000e+04   2.9582001e+01
   1.1200000e+06   2.5000000e+04   2.9582001e+01
   1.1210000e+06  -2.5000000e+04   2.9508574e+01
   1.1210000e+06  -2.4000000e+04   2.9508574e+01
   1.1210000e+06  -2.3000000e+04   2.9508574e+01
   1.1210000e+06  -2.2000000e+04   2.9508574e+01
   1.1210000e+06  -2.1000000e+04   2.9508574e+01
   1.1210000e+06  -2.0000000e+04   2.9508574e+01
   1.1210000e+06  -1.9000000e+04   2.9508574e+01
   1.1210000e+06  -1.8000000e+04   2.9508574e+01
   1.1210000e+06  -1.7000000e+04   2.9508574e+01
   1.1210000e+06  -1.6000000e+04   2.9508574e+01
   1.1210000e+06  -1.5000000e+04   2.9508574e+01
   1.1210000e+06  -1.4000000e+04   2.9508574e+01
   1.1210000e+06  -1.3000000e+04   2.9508574e+01
   1.1210000e+06  -1.2000000e+04   2.9508574e+01
   1.1210000e+06  -1.1000000e+04   2.9508574e+01
   1.1210000e+06  -1.0000000e+04   2.9508574e+01
   1.1210000e+06  -9.0000000e+03   2.9508574e+01
   1.1210000e+06  -8.0000000e+03   2.9508574e+01
   1.1210000e+06  -7.0000000e+03   2.9508574e+01
   1.1210000e+06  -6.0000000e+03   2.9508574e+01
   1.1210000e+06  -5.0000000e+03   2.9508574e+01
   1.1210000e+06  -4.0000000e+03   2.9508574e+01
   1.1210000e+06  -3.0000000e+03   2.9508574e+01
   1.1210000e+06  -2.0000000e+03   2.9508574e+01
   1.1210000e+06  -1.0000000e+03   2.9508574e+01
   1.1210000e+06   0.0000000e+00   2.9508574e+01
   1.1210000e+06   1.0000000e+03   2.9508574e+01
   1.1210000e+06   2.0000000e+03   2.9508574e+01
   1.1210000e+06   3.0000000e+03   2.9508574e+01
   1.1210000e+06   4.0000000e+03   2.9508574e+01
   1.1210000e+06   5.0000000e+03   2.9508574e+01
   1.1210000e+06   6.0000000e+03   2.9508574e+01
   1.1210000e+06   7.0000000e+03   2.9508574e+01
   1.1210000e+06   8.0000000e+03   2.9508574e+01
   1.1210000e+06   9.0000000e+03   2.9508574e+01
   1.1210000e+06   1.0000000e+04   2.9508574e+01
   1.1210000e+06   1.1000000e+04   2.9508574e+01
   1.1210000e+06   1.2000000e+04   2.9508574e+01
   1.1210000e+06   1.3000000e+04   2.9508574e+01
   1.1210000e+06   1.4000000e+04   2.9508574e+01
   1.1210000e+06   1.5000000e+04   2.9508574e+01
   1.1210000e+06   1.6000000e+04   2.9508574e+01
   1.1210000e+06   1.7000000e+04   2.9508574e+01
   1.1210000e+06   1.8000000e+04   2.9508574e+01
   1.1210000e+06   1.9000000e+04   2.9508574e+01
   1.1210000e+06   2.0000000e+04   2.9508574e+01
   1.1210000e+06   2.1000000e+04   2.9508574e+01
   1.1210000e+06   2.2000000e+04   2.9508574e+01
   1.1210000e+06   2.3000000e+04   2.9508574e+01
   1.1210000e+06   2.4000000e+04   2.9508574e+01
   1.1210000e+06   2.5000000e+04   2.9508574e+01
   1.1220000e+06  -2.5000000e+04   2.9436789e+01
   1.1220000e+06  -2.4000000e+04   2.9436789e+01
   1.1220000e+06  -2.3000000e+04   2.9436789e+01
   1.1220000e+06  -2.2000000e+04   2.9436789e+01
   1.1220000e+06  -2.1000000e+04   2.9436789e+01
   1.1220000e+06  -2.0000000e+04   2.9436789e+01
   1.1220000e+06  -1.9000000e+04   2.9436789e+01
   1.1220000e+06  -1.8000000e+04   2.9436789e+01
   1.1220000e+06  -1.7000000e+04   2.9436789e+01
   1.1220000e+06  -1.6000000e+04   2.9436789e+01
   1.1220000e+06  -1.5000000e+04   2.9436789e+01
   1.1220000e+06  -1.4000000e+04   2.9436789e+01
   1.1220000e+06  -1.3000000e+04   2.9436789e+01
   1.1220000e+06  -1.2000000e+04   2.9436789e+01
   1.1220000e+06  -1.1000000e+04   2.9436789e+01
   1.1220000e+06  -1.0000000e+04   2.9436789e+01
   1.1220000e+06  -9.0000000e+03   2.9436789e+01
   1.1220000e+06  -8.0000000e+03   2.9436789e+01
   1.1220000e+06  -7.0000000e+03   2.9436789e+01
   1.1220000e+06  -6.0000000e+03   2.9436789e+01
   1.1220000e+06  -5.0000000e+03   2.9436789e+01
   1.1220000e+06  -4.0000000e+03   2.9436789e+01
   1.1220000e+06  -3.0000000e+03   2.9436789e+01
   1.1220000e+06  -2.0000000e+03   2.9436789e+01
   1.1220000e+06  -1.0000000e+03   2.9436789e+01
   1.1220000e+06   0.0000000e+00   2.9436789e+01
   1.1220000e+06   1.0000000e+03   2.9436789e+01
   1.1220000e+06   2.0000000e+03   2.9436789e+01
   1.1220000e+06   3.0000000e+03   2.9436789e+01
   1.1220000e+06   4.0000000e+03   2.9436789e+01
   1.1220000e+06   5.0000000e+03   2.9436789e+01
   1.1220000e+06   6.0000000e+03   2.9436789e+01
   1.1220000e+06   7.0000000e+03   2.9436789e+01
   1.1220000e+06   8.0000000e+03   2.9436789e+01
   1.1220000e+06   9.0000000e+03   2.9436789e+01
   1.1220000e+06   1.0000000e+04   2.9436789e+01
   1.1220000e+06   1.1000000e+04   2.9436789e+01
   1.1220000e+06   1.2000000e+04   2.9436789e+01
   1.1220000e+06   1.3000000e+04   2.9436789e+01
   1.1220000e+06   1.4000000e+04   2.9436789e+01
   1.1220000e+06   1.5000000e+04   2.9436789e+01
   1.1220000e+06   1.6000000e+04   2.9436789e+01
   1.1220000e+06   1.7000000e+04   2.9436789e+01
   1.1220000e+06   1.8000000e+04   2.9436789e+01
   1.1220000e+06   1.9000000e+04   2.9436789e+01
   1.1220000e+06   2.0000000e+04   2.9436789e+01
   1.1220000e+06   2.1000000e+04   2.9436789e+01
   1.1220000e+06   2.2000000e+04   2.9436789e+01
   1.1220000e+06   2.3000000e+04   2.9436789e+01
   1.1220000e+06   2.4000000e+04   2.9436789e+01
   1.1220000e+06   2.5000000e+04   2.9436789e+01
   1.1230000e+06  -2.5000000e+04   2.9366718e+01
   1.1230000e+06  -2.4000000e+04   2.9366718e+01
   1.1230000e+06  -2.3000000e+04   2.9366718e+01
   1.1230000e+06  -2.2000000e+04   2.9366718e+01
   1.1230000e+06  -2.1000000e+04   2.9366718e+01
   1.1230000e+06  -2.0000000e+04   2.9366718e+01
   1.1230000e+06  -1.9000000e+04   2.9366718e+01
   1.1230000e+06  -1.8000000e+04   2.9366718e+01
   1.1230000e+06  -1.7000000e+04   2.9366718e+01
   1.1230000e+06  -1.6000000e+04   2.9366718e+01
   1.1230000e+06  -1.5000000e+04   2.9366718e+01
   1.1230000e+06  -1.4000000e+04   2.9366718e+01
   1.1230000e+06  -1.3000000e+04   2.9366718e+01
   1.1230000e+06  -1.2000000e+04   2.9366718e+01
   1.1230000e+06  -1.1000000e+04   2.9366718e+01
   1.1230000e+06  -1.0000000e+04   2.9366718e+01
   1.1230000e+06  -9.0000000e+03   2.9366718e+01
   1.1230000e+06  -8.0000000e+03   2.9366718e+01
   1.1230000e+06  -7.0000000e+03   2.9366718e+01
   1.1230000e+06  -6.0000000e+03   2.9366718e+01
   1.1230000e+06  -5.0000000e+03   2.9366718e+01
   1.1230000e+06  -4.0000000e+03   2.9366718e+01
   1.1230000e+06  -3.0000000e+03   2.9366718e+01
   1.1230000e+06  -2.0000000e+03   2.9366718e+01
   1.1230000e+06  -1.0000000e+03   2.9366718e+01
   1.1230000e+06   0.0000000e+00   2.9366718e+01
   1.1230000e+06   1.0000000e+03   2.9366718e+01
   1.1230000e+06   2.0000000e+03   2.9366718e+01
   1.1230000e+06   3.0000000e+03   2.9366718e+01
   1.1230000e+06   4.0000000e+03   2.9366718e+01
   1.1230000e+06   5.0000000e+03   2.9366718e+01
   1.1230000e+06   6.0000000e+03   2.9366718e+01
   1.1230000e+06   7.0000000e+03   2.9366718e+01
   1.1230000e+06   8.0000000e+03   2.9366718e+01
   1.1230000e+06   9.0000000e+03   2.9366718e+01
   1.1230000e+06   1.0000000e+04   2.9366718e+01
   1.1230000e+06   1.1000000e+04   2.9366718e+01
   1.1230000e+06   1.2000000e+04   2.9366718e+01
   1.1230000e+06   1.3000000e+04   2.9366718e+01
   1.1230000e+06   1.4000000e+04   2.9366718e+01
   1.1230000e+06   1.5000000e+04   2.9366718e+01
   1.1230000e+06   1.6000000e+04   2.9366718e+01
   1.1230000e+06   1.7000000e+04   2.9366718e+01
   1.1230000e+06   1.8000000e+04   2.9366718e+01
   1.1230000e+06   1.9000000e+04   2.9366718e+01
   1.1230000e+06   2.0000000e+04   2.9366718e+01
   1.1230000e+06   2.1000000e+04   2.9366718e+01
   1.1230000e+06   2.2000000e+04   2.9366718e+01
   1.1230000e+06   2.3000000e+04   2.9366718e+01
   1.1230000e+06   2.4000000e+04   2.9366718e+01
   1.1230000e+06   2.5000000e+04   2.9366718e+01
   1.1240000e+06  -2.5000000e+04   2.9298024e+01
   1.1240000e+06  -2.4000000e+04   2.9298024e+01
   1.1240000e+06  -2.3000000e+04   2.9298024e+01
   1.1240000e+06  -2.2000000e+04   2.9298024e+01
   1.1240000e+06  -2.1000000e+04   2.9298024e+01
   1.1240000e+06  -2.0000000e+04   2.9298024e+01
   1.1240000e+06  -1.9000000e+04   2.9298024e+01
   1.1240000e+06  -1.8000000e+04   2.9298024e+01
   1.1240000e+06  -1.7000000e+04   2.9298024e+01
   1.1240000e+06  -1.6000000e+04   2.9298024e+01
   1.1240000e+06  -1.5000000e+04   2.9298024e+01
   1.1240000e+06  -1.4000000e+04   2.9298024e+01
   1.1240000e+06  -1.3000000e+04   2.9298024e+01
   1.1240000e+06  -1.2000000e+04   2.9298024e+01
   1.1240000e+06  -1.1000000e+04   2.9298024e+01
   1.1240000e+06  -1.0000000e+04   2.9298024e+01
   1.1240000e+06  -9.0000000e+03   2.9298024e+01
   1.1240000e+06  -8.0000000e+03   2.9298024e+01
   1.1240000e+06  -7.0000000e+03   2.9298024e+01
   1.1240000e+06  -6.0000000e+03   2.9298024e+01
   1.1240000e+06  -5.0000000e+03   2.9298024e+01
   1.1240000e+06  -4.0000000e+03   2.9298024e+01
   1.1240000e+06  -3.0000000e+03   2.9298024e+01
   1.1240000e+06  -2.0000000e+03   2.9298024e+01
   1.1240000e+06  -1.0000000e+03   2.9298024e+01
   1.1240000e+06   0.0000000e+00   2.9298024e+01
   1.1240000e+06   1.0000000e+03   2.9298024e+01
   1.1240000e+06   2.0000000e+03   2.9298024e+01
   1.1240000e+06   3.0000000e+03   2.9298024e+01
   1.1240000e+06   4.0000000e+03   2.9298024e+01
   1.1240000e+06   5.0000000e+03   2.9298024e+01
   1.1240000e+06   6.0000000e+03   2.9298024e+01
   1.1240000e+06   7.0000000e+03   2.9298024e+01
   1.1240000e+06   8.0000000e+03   2.9298024e+01
   1.1240000e+06   9.0000000e+03   2.9298024e+01
   1.1240000e+06   1.0000000e+04   2.9298024e+01
   1.1240000e+06   1.1000000e+04   2.9298024e+01
   1.1240000e+06   1.2000000e+04   2.9298024e+01
   1.1240000e+06   1.3000000e+04   2.9298024e+01
   1.1240000e+06   1.4000000e+04   2.9298024e+01
   1.1240000e+06   1.5000000e+04   2.9298024e+01
   1.1240000e+06   1.6000000e+04   2.9298024e+01
   1.1240000e+06   1.7000000e+04   2.9298024e+01
   1.1240000e+06   1.8000000e+04   2.9298024e+01
   1.1240000e+06   1.9000000e+04   2.9298024e+01
   1.1240000e+06   2.0000000e+04   2.9298024e+01
   1.1240000e+06   2.1000000e+04   2.9298024e+01
   1.1240000e+06   2.2000000e+04   2.9298024e+01
   1.1240000e+06   2.3000000e+04   2.9298024e+01
   1.1240000e+06   2.4000000e+04   2.9298024e+01
   1.1240000e+06   2.5000000e+04   2.9298024e+01
   1.1250000e+06  -2.5000000e+04   2.9230344e+01
   1.1250000e+06  -2.4000000e+04   2.9230344e+01
   1.1250000e+06  -2.3000000e+04   2.9230344e+01
   1.1250000e+06  -2.2000000e+04   2.9230344e+01
   1.1250000e+06  -2.1000000e+04   2.9230344e+01
   1.1250000e+06  -2.0000000e+04   2.9230344e+01
   1.1250000e+06  -1.9000000e+04   2.9230344e+01
   1.1250000e+06  -1.8000000e+04   2.9230344e+01
   1.1250000e+06  -1.7000000e+04   2.9230344e+01
   1.1250000e+06  -1.6000000e+04   2.9230344e+01
   1.1250000e+06  -1.5000000e+04   2.9230344e+01
   1.1250000e+06  -1.4000000e+04   2.9230344e+01
   1.1250000e+06  -1.3000000e+04   2.9230344e+01
   1.1250000e+06  -1.2000000e+04   2.9230344e+01
   1.1250000e+06  -1.1000000e+04   2.9230344e+01
   1.1250000e+06  -1.0000000e+04   2.9230344e+01
   1.1250000e+06  -9.0000000e+03   2.9230344e+01
   1.1250000e+06  -8.0000000e+03   2.9230344e+01
   1.1250000e+06  -7.0000000e+03   2.9230344e+01
   1.1250000e+06  -6.0000000e+03   2.9230344e+01
   1.1250000e+06  -5.0000000e+03   2.9230344e+01
   1.1250000e+06  -4.0000000e+03   2.9230344e+01
   1.1250000e+06  -3.0000000e+03   2.9230344e+01
   1.1250000e+06  -2.0000000e+03   2.9230344e+01
   1.1250000e+06  -1.0000000e+03   2.9230344e+01
   1.1250000e+06   0.0000000e+00   2.9230344e+01
   1.1250000e+06   1.0000000e+03   2.9230344e+01
   1.1250000e+06   2.0000000e+03   2.9230344e+01
   1.1250000e+06   3.0000000e+03   2.9230344e+01
   1.1250000e+06   4.0000000e+03   2.9230344e+01
   1.1250000e+06   5.0000000e+03   2.9230344e+01
   1.1250000e+06   6.0000000e+03   2.9230344e+01
   1.1250000e+06   7.0000000e+03   2.9230344e+01
   1.1250000e+06   8.0000000e+03   2.9230344e+01
   1.1250000e+06   9.0000000e+03   2.9230344e+01
   1.1250000e+06   1.0000000e+04   2.9230344e+01
   1.1250000e+06   1.1000000e+04   2.9230344e+01
   1.1250000e+06   1.2000000e+04   2.9230344e+01
   1.1250000e+06   1.3000000e+04   2.9230344e+01
   1.1250000e+06   1.4000000e+04   2.9230344e+01
   1.1250000e+06   1.5000000e+04   2.9230344e+01
   1.1250000e+06   1.6000000e+04   2.9230344e+01
   1.1250000e+06   1.7000000e+04   2.9230344e+01
   1.1250000e+06   1.8000000e+04   2.9230344e+01
   1.1250000e+06   1.9000000e+04   2.9230344e+01
   1.1250000e+06   2.0000000e+04   2.9230344e+01
   1.1250000e+06   2.1000000e+04   2.9230344e+01
   1.1250000e+06   2.2000000e+04   2.9230344e+01
   1.1250000e+06   2.3000000e+04   2.9230344e+01
   1.1250000e+06   2.4000000e+04   2.9230344e+01
   1.1250000e+06   2.5000000e+04   2.9230344e+01
   1.1260000e+06  -2.5000000e+04   2.9163319e+01
   1.1260000e+06  -2.4000000e+04   2.9163319e+01
   1.1260000e+06  -2.3000000e+04   2.9163319e+01
   1.1260000e+06  -2.2000000e+04   2.9163319e+01
   1.1260000e+06  -2.1000000e+04   2.9163319e+01
   1.1260000e+06  -2.0000000e+04   2.9163319e+01
   1.1260000e+06  -1.9000000e+04   2.9163319e+01
   1.1260000e+06  -1.8000000e+04   2.9163319e+01
   1.1260000e+06  -1.7000000e+04   2.9163319e+01
   1.1260000e+06  -1.6000000e+04   2.9163319e+01
   1.1260000e+06  -1.5000000e+04   2.9163319e+01
   1.1260000e+06  -1.4000000e+04   2.9163319e+01
   1.1260000e+06  -1.3000000e+04   2.9163319e+01
   1.1260000e+06  -1.2000000e+04   2.9163319e+01
   1.1260000e+06  -1.1000000e+04   2.9163319e+01
   1.1260000e+06  -1.0000000e+04   2.9163319e+01
   1.1260000e+06  -9.0000000e+03   2.9163319e+01
   1.1260000e+06  -8.0000000e+03   2.9163319e+01
   1.1260000e+06  -7.0000000e+03   2.9163319e+01
   1.1260000e+06  -6.0000000e+03   2.9163319e+01
   1.1260000e+06  -5.0000000e+03   2.9163319e+01
   1.1260000e+06  -4.0000000e+03   2.9163319e+01
   1.1260000e+06  -3.0000000e+03   2.9163319e+01
   1.1260000e+06  -2.0000000e+03   2.9163319e+01
   1.1260000e+06  -1.0000000e+03   2.9163319e+01
   1.1260000e+06   0.0000000e+00   2.9163319e+01
   1.1260000e+06   1.0000000e+03   2.9163319e+01
   1.1260000e+06   2.0000000e+03   2.9163319e+01
   1.1260000e+06   3.0000000e+03   2.9163319e+01
   1.1260000e+06   4.0000000e+03   2.9163319e+01
   1.1260000e+06   5.0000000e+03   2.9163319e+01
   1.1260000e+06   6.0000000e+03   2.9163319e+01
   1.1260000e+06   7.0000000e+03   2.9163319e+01
   1.1260000e+06   8.0000000e+03   2.9163319e+01
   1.1260000e+06   9.0000000e+03   2.9163319e+01
   1.1260000e+06   1.0000000e+04   2.9163319e+01
   1.1260000e+06   1.1000000e+04   2.9163319e+01
   1.1260000e+06   1.2000000e+04   2.9163319e+01
   1.1260000e+06   1.3000000e+04   2.9163319e+01
   1.1260000e+06   1.4000000e+04   2.9163319e+01
   1.1260000e+06   1.5000000e+04   2.9163319e+01
   1.1260000e+06   1.6000000e+04   2.9163319e+01
   1.1260000e+06   1.7000000e+04   2.9163319e+01
   1.1260000e+06   1.8000000e+04   2.9163319e+01
   1.1260000e+06   1.9000000e+04   2.9163319e+01
   1.1260000e+06   2.0000000e+04   2.9163319e+01
   1.1260000e+06   2.1000000e+04   2.9163319e+01
   1.1260000e+06   2.2000000e+04   2.9163319e+01
   1.1260000e+06   2.3000000e+04   2.9163319e+01
   1.1260000e+06   2.4000000e+04   2.9163319e+01
   1.1260000e+06   2.5000000e+04   2.9163319e+01
   1.1270000e+06  -2.5000000e+04   2.9096929e+01
   1.1270000e+06  -2.4000000e+04   2.9096929e+01
   1.1270000e+06  -2.3000000e+04   2.9096929e+01
   1.1270000e+06  -2.2000000e+04   2.9096929e+01
   1.1270000e+06  -2.1000000e+04   2.9096929e+01
   1.1270000e+06  -2.0000000e+04   2.9096929e+01
   1.1270000e+06  -1.9000000e+04   2.9096929e+01
   1.1270000e+06  -1.8000000e+04   2.9096929e+01
   1.1270000e+06  -1.7000000e+04   2.9096929e+01
   1.1270000e+06  -1.6000000e+04   2.9096929e+01
   1.1270000e+06  -1.5000000e+04   2.9096929e+01
   1.1270000e+06  -1.4000000e+04   2.9096929e+01
   1.1270000e+06  -1.3000000e+04   2.9096929e+01
   1.1270000e+06  -1.2000000e+04   2.9096929e+01
   1.1270000e+06  -1.1000000e+04   2.9096929e+01
   1.1270000e+06  -1.0000000e+04   2.9096929e+01
   1.1270000e+06  -9.0000000e+03   2.9096929e+01
   1.1270000e+06  -8.0000000e+03   2.9096929e+01
   1.1270000e+06  -7.0000000e+03   2.9096929e+01
   1.1270000e+06  -6.0000000e+03   2.9096929e+01
   1.1270000e+06  -5.0000000e+03   2.9096929e+01
   1.1270000e+06  -4.0000000e+03   2.9096929e+01
   1.1270000e+06  -3.0000000e+03   2.9096929e+01
   1.1270000e+06  -2.0000000e+03   2.9096929e+01
   1.1270000e+06  -1.0000000e+03   2.9096929e+01
   1.1270000e+06   0.0000000e+00   2.9096929e+01
   1.1270000e+06   1.0000000e+03   2.9096929e+01
   1.1270000e+06   2.0000000e+03   2.9096929e+01
   1.1270000e+06   3.0000000e+03   2.9096929e+01
   1.1270000e+06   4.0000000e+03   2.9096929e+01
   1.1270000e+06   5.0000000e+03   2.9096929e+01
   1.1270000e+06   6.0000000e+03   2.9096929e+01
   1.1270000e+06   7.0000000e+03   2.9096929e+01
   1.1270000e+06   8.0000000e+03   2.9096929e+01
   1.1270000e+06   9.0000000e+03   2.9096929e+01
   1.1270000e+06   1.0000000e+04   2.9096929e+01
   1.1270000e+06   1.1000000e+04   2.9096929e+01
   1.1270000e+06   1.2000000e+04   2.9096929e+01
   1.1270000e+06   1.3000000e+04   2.9096929e+01
   1.1270000e+06   1.4000000e+04   2.9096929e+01
   1.1270000e+06   1.5000000e+04   2.9096929e+01
   1.1270000e+06   1.6000000e+04   2.9096929e+01
   1.1270000e+06   1.7000000e+04   2.9096929e+01
   1.1270000e+06   1.8000000e+04   2.9096929e+01
   1.1270000e+06   1.9000000e+04   2.9096929e+01
   1.1270000e+06   2.0000000e+04   2.9096929e+01
   1.1270000e+06   2.1000000e+04   2.9096929e+01
   1.1270000e+06   2.2000000e+04   2.9096929e+01
   1.1270000e+06   2.3000000e+04   2.9096929e+01
   1.1270000e+06   2.4000000e+04   2.9096929e+01
   1.1270000e+06   2.5000000e+04   2.9096929e+01
   1.1280000e+06  -2.5000000e+04   2.9031309e+01
   1.1280000e+06  -2.4000000e+04   2.9031309e+01
   1.1280000e+06  -2.3000000e+04   2.9031309e+01
   1.1280000e+06  -2.2000000e+04   2.9031309e+01
   1.1280000e+06  -2.1000000e+04   2.9031309e+01
   1.1280000e+06  -2.0000000e+04   2.9031309e+01
   1.1280000e+06  -1.9000000e+04   2.9031309e+01
   1.1280000e+06  -1.8000000e+04   2.9031309e+01
   1.1280000e+06  -1.7000000e+04   2.9031309e+01
   1.1280000e+06  -1.6000000e+04   2.9031309e+01
   1.1280000e+06  -1.5000000e+04   2.9031309e+01
   1.1280000e+06  -1.4000000e+04   2.9031309e+01
   1.1280000e+06  -1.3000000e+04   2.9031309e+01
   1.1280000e+06  -1.2000000e+04   2.9031309e+01
   1.1280000e+06  -1.1000000e+04   2.9031309e+01
   1.1280000e+06  -1.0000000e+04   2.9031309e+01
   1.1280000e+06  -9.0000000e+03   2.9031309e+01
   1.1280000e+06  -8.0000000e+03   2.9031309e+01
   1.1280000e+06  -7.0000000e+03   2.9031309e+01
   1.1280000e+06  -6.0000000e+03   2.9031309e+01
   1.1280000e+06  -5.0000000e+03   2.9031309e+01
   1.1280000e+06  -4.0000000e+03   2.9031309e+01
   1.1280000e+06  -3.0000000e+03   2.9031309e+01
   1.1280000e+06  -2.0000000e+03   2.9031309e+01
   1.1280000e+06  -1.0000000e+03   2.9031309e+01
   1.1280000e+06   0.0000000e+00   2.9031309e+01
   1.1280000e+06   1.0000000e+03   2.9031309e+01
   1.1280000e+06   2.0000000e+03   2.9031309e+01
   1.1280000e+06   3.0000000e+03   2.9031309e+01
   1.1280000e+06   4.0000000e+03   2.9031309e+01
   1.1280000e+06   5.0000000e+03   2.9031309e+01
   1.1280000e+06   6.0000000e+03   2.9031309e+01
   1.1280000e+06   7.0000000e+03   2.9031309e+01
   1.1280000e+06   8.0000000e+03   2.9031309e+01
   1.1280000e+06   9.0000000e+03   2.9031309e+01
   1.1280000e+06   1.0000000e+04   2.9031309e+01
   1.1280000e+06   1.1000000e+04   2.9031309e+01
   1.1280000e+06   1.2000000e+04   2.9031309e+01
   1.1280000e+06   1.3000000e+04   2.9031309e+01
   1.1280000e+06   1.4000000e+04   2.9031309e+01
   1.1280000e+06   1.5000000e+04   2.9031309e+01
   1.1280000e+06   1.6000000e+04   2.9031309e+01
   1.1280000e+06   1.7000000e+04   2.9031309e+01
   1.1280000e+06   1.8000000e+04   2.9031309e+01
   1.1280000e+06   1.9000000e+04   2.9031309e+01
   1.1280000e+06   2.0000000e+04   2.9031309e+01
   1.1280000e+06   2.1000000e+04   2.9031309e+01
   1.1280000e+06   2.2000000e+04   2.9031309e+01
   1.1280000e+06   2.3000000e+04   2.9031309e+01
   1.1280000e+06   2.4000000e+04   2.9031309e+01
   1.1280000e+06   2.5000000e+04   2.9031309e+01
   1.1290000e+06  -2.5000000e+04   2.8966457e+01
   1.1290000e+06  -2.4000000e+04   2.8966457e+01
   1.1290000e+06  -2.3000000e+04   2.8966457e+01
   1.1290000e+06  -2.2000000e+04   2.8966457e+01
   1.1290000e+06  -2.1000000e+04   2.8966457e+01
   1.1290000e+06  -2.0000000e+04   2.8966457e+01
   1.1290000e+06  -1.9000000e+04   2.8966457e+01
   1.1290000e+06  -1.8000000e+04   2.8966457e+01
   1.1290000e+06  -1.7000000e+04   2.8966457e+01
   1.1290000e+06  -1.6000000e+04   2.8966457e+01
   1.1290000e+06  -1.5000000e+04   2.8966457e+01
   1.1290000e+06  -1.4000000e+04   2.8966457e+01
   1.1290000e+06  -1.3000000e+04   2.8966457e+01
   1.1290000e+06  -1.2000000e+04   2.8966457e+01
   1.1290000e+06  -1.1000000e+04   2.8966457e+01
   1.1290000e+06  -1.0000000e+04   2.8966457e+01
   1.1290000e+06  -9.0000000e+03   2.8966457e+01
   1.1290000e+06  -8.0000000e+03   2.8966457e+01
   1.1290000e+06  -7.0000000e+03   2.8966457e+01
   1.1290000e+06  -6.0000000e+03   2.8966457e+01
   1.1290000e+06  -5.0000000e+03   2.8966457e+01
   1.1290000e+06  -4.0000000e+03   2.8966457e+01
   1.1290000e+06  -3.0000000e+03   2.8966457e+01
   1.1290000e+06  -2.0000000e+03   2.8966457e+01
   1.1290000e+06  -1.0000000e+03   2.8966457e+01
   1.1290000e+06   0.0000000e+00   2.8966457e+01
   1.1290000e+06   1.0000000e+03   2.8966457e+01
   1.1290000e+06   2.0000000e+03   2.8966457e+01
   1.1290000e+06   3.0000000e+03   2.8966457e+01
   1.1290000e+06   4.0000000e+03   2.8966457e+01
   1.1290000e+06   5.0000000e+03   2.8966457e+01
   1.1290000e+06   6.0000000e+03   2.8966457e+01
   1.1290000e+06   7.0000000e+03   2.8966457e+01
   1.1290000e+06   8.0000000e+03   2.8966457e+01
   1.1290000e+06   9.0000000e+03   2.8966457e+01
   1.1290000e+06   1.0000000e+04   2.8966457e+01
   1.1290000e+06   1.1000000e+04   2.8966457e+01
   1.1290000e+06   1.2000000e+04   2.8966457e+01
   1.1290000e+06   1.3000000e+04   2.8966457e+01
   1.1290000e+06   1.4000000e+04   2.8966457e+01
   1.1290000e+06   1.5000000e+04   2.8966457e+01
   1.1290000e+06   1.6000000e+04   2.8966457e+01
   1.1290000e+06   1.7000000e+04   2.8966457e+01
   1.1290000e+06   1.8000000e+04   2.8966457e+01
   1.1290000e+06   1.9000000e+04   2.8966457e+01
   1.1290000e+06   2.0000000e+04   2.8966457e+01
   1.1290000e+06   2.1000000e+04   2.8966457e+01
   1.1290000e+06   2.2000000e+04   2.8966457e+01
   1.1290000e+06   2.3000000e+04   2.8966457e+01
   1.1290000e+06   2.4000000e+04   2.8966457e+01
   1.1290000e+06   2.5000000e+04   2.8966457e+01
   1.1300000e+06  -2.5000000e+04   2.8902367e+01
   1.1300000e+06  -2.4000000e+04   2.8902367e+01
   1.1300000e+06  -2.3000000e+04   2.8902367e+01
   1.1300000e+06  -2.2000000e+04   2.8902367e+01
   1.1300000e+06  -2.1000000e+04   2.8902367e+01
   1.1300000e+06  -2.0000000e+04   2.8902367e+01
   1.1300000e+06  -1.9000000e+04   2.8902367e+01
   1.1300000e+06  -1.8000000e+04   2.8902367e+01
   1.1300000e+06  -1.7000000e+04   2.8902367e+01
   1.1300000e+06  -1.6000000e+04   2.8902367e+01
   1.1300000e+06  -1.5000000e+04   2.8902367e+01
   1.1300000e+06  -1.4000000e+04   2.8902367e+01
   1.1300000e+06  -1.3000000e+04   2.8902367e+01
   1.1300000e+06  -1.2000000e+04   2.8902367e+01
   1.1300000e+06  -1.1000000e+04   2.8902367e+01
   1.1300000e+06  -1.0000000e+04   2.8902367e+01
   1.1300000e+06  -9.0000000e+03   2.8902367e+01
   1.1300000e+06  -8.0000000e+03   2.8902367e+01
   1.1300000e+06  -7.0000000e+03   2.8902367e+01
