   1.0050000e+06   2.0000000e+03   1.0604819e+03
   1.0050000e+06   3.0000000e+03   1.0604819e+03
   1.0050000e+06   4.0000000e+03   1.0604819e+03
   1.0050000e+06   5.0000000e+03   1.0604819e+03
   1.0050000e+06   6.0000000e+03   1.0604819e+03
   1.0050000e+06   7.0000000e+03   1.0604819e+03
   1.0050000e+06   8.0000000e+03   1.0604819e+03
   1.0050000e+06   9.0000000e+03   1.0604819e+03
   1.0050000e+06   1.0000000e+04   1.0604819e+03
   1.0060000e+06  -1.0000000e+04   1.0487729e+03
   1.0060000e+06  -9.0000000e+03   1.0487729e+03
   1.0060000e+06  -8.0000000e+03   1.0487729e+03
   1.0060000e+06  -7.0000000e+03   1.0487729e+03
   1.0060000e+06  -6.0000000e+03   1.0487729e+03
   1.0060000e+06  -5.0000000e+03   1.0487729e+03
   1.0060000e+06  -4.0000000e+03   1.0487729e+03
   1.0060000e+06  -3.0000000e+03   1.0487729e+03
   1.0060000e+06  -2.0000000e+03   1.0487729e+03
   1.0060000e+06  -1.0000000e+03   1.0487729e+03
   1.0060000e+06   0.0000000e+00   1.0487729e+03
   1.0060000e+06   1.0000000e+03   1.0487729e+03
   1.0060000e+06   2.0000000e+03   1.0487729e+03
   1.0060000e+06   3.0000000e+03   1.0487729e+03
   1.0060000e+06   4.0000000e+03   1.0487729e+03
   1.0060000e+06   5.0000000e+03   1.0487729e+03
   1.0060000e+06   6.0000000e+03   1.0487729e+03
   1.0060000e+06   7.0000000e+03   1.0487729e+03
   1.0060000e+06   8.0000000e+03   1.0487729e+03
   1.0060000e+06   9.0000000e+03   1.0487729e+03
   1.0060000e+06   1.0000000e+04   1.0487729e+03
   1.0070000e+06  -1.0000000e+04   1.0367988e+03
   1.0070000e+06  -9.0000000e+03   1.0367988e+03
   1.0070000e+06  -8.0000000e+03   1.0367988e+03
   1.0070000e+06  -7.0000000e+03   1.0367988e+03
   1.0070000e+06  -6.0000000e+03   1.0367988e+03
   1.0070000e+06  -5.0000000e+03   1.0367988e+03
   1.0070000e+06  -4.0000000e+03   1.0367988e+03
   1.0070000e+06  -3.0000000e+03   1.0367988e+03
   1.0070000e+06  -2.0000000e+03   1.0367988e+03
   1.0070000e+06  -1.0000000e+03   1.0367988e+03
   1.0070000e+06   0.0000000e+00   1.0367988e+03
   1.0070000e+06   1.0000000e+03   1.0367988e+03
   1.0070000e+06   2.0000000e+03   1.0367988e+03
   1.0070000e+06   3.0000000e+03   1.0367988e+03
   1.0070000e+06   4.0000000e+03   1.0367988e+03
   1.0070000e+06   5.0000000e+03   1.0367988e+03
   1.0070000e+06   6.0000000e+03   1.0367988e+03
   1.0070000e+06   7.0000000e+03   1.0367988e+03
   1.0070000e+06   8.0000000e+03   1.0367988e+03
   1.0070000e+06   9.0000000e+03   1.0367988e+03
   1.0070000e+06   1.0000000e+04   1.0367988e+03
   1.0080000e+06  -1.0000000e+04   1.0245969e+03
   1.0080000e+06  -9.0000000e+03   1.0245969e+03
   1.0080000e+06  -8.0000000e+03   1.0245969e+03
   1.0080000e+06  -7.0000000e+03   1.0245969e+03
   1.0080000e+06  -6.0000000e+03   1.0245969e+03
   1.0080000e+06  -5.0000000e+03   1.0245969e+03
   1.0080000e+06  -4.0000000e+03   1.0245969e+03
   1.0080000e+06  -3.0000000e+03   1.0245969e+03
   1.0080000e+06  -2.0000000e+03   1.0245969e+03
   1.0080000e+06  -1.0000000e+03   1.0245969e+03
   1.0080000e+06   0.0000000e+00   1.0245969e+03
   1.0080000e+06   1.0000000e+03   1.0245969e+03
   1.0080000e+06   2.0000000e+03   1.0245969e+03
   1.0080000e+06   3.0000000e+03   1.0245969e+03
   1.0080000e+06   4.0000000e+03   1.0245969e+03
   1.0080000e+06   5.0000000e+03   1.0245969e+03
   1.0080000e+06   6.0000000e+03   1.0245969e+03
   1.0080000e+06   7.0000000e+03   1.0245969e+03
   1.0080000e+06   8.0000000e+03   1.0245969e+03
   1.0080000e+06   9.0000000e+03   1.0245969e+03
   1.0080000e+06   1.0000000e+04   1.0245969e+03
   1.0090000e+06  -1.0000000e+04   1.0122425e+03
   1.0090000e+06  -9.0000000e+03   1.0122425e+03
   1.0090000e+06  -8.0000000e+03   1.0122425e+03
   1.0090000e+06  -7.0000000e+03   1.0122425e+03
   1.0090000e+06  -6.0000000e+03   1.0122425e+03
   1.0090000e+06  -5.0000000e+03   1.0122425e+03
   1.0090000e+06  -4.0000000e+03   1.0122425e+03
   1.0090000e+06  -3.0000000e+03   1.0122425e+03
   1.0090000e+06  -2.0000000e+03   1.0122425e+03
   1.0090000e+06  -1.0000000e+03   1.0122425e+03
   1.0090000e+06   0.0000000e+00   1.0122425e+03
   1.0090000e+06   1.0000000e+03   1.0122425e+03
   1.0090000e+06   2.0000000e+03   1.0122425e+03
   1.0090000e+06   3.0000000e+03   1.0122425e+03
   1.0090000e+06   4.0000000e+03   1.0122425e+03
   1.0090000e+06   5.0000000e+03   1.0122425e+03
   1.0090000e+06   6.0000000e+03   1.0122425e+03
   1.0090000e+06   7.0000000e+03   1.0122425e+03
   1.0090000e+06   8.0000000e+03   1.0122425e+03
   1.0090000e+06   9.0000000e+03   1.0122425e+03
   1.0090000e+06   1.0000000e+04   1.0122425e+03
   1.0100000e+06  -1.0000000e+04   9.9980948e+02
   1.0100000e+06  -9.0000000e+03   9.9980948e+02
   1.0100000e+06  -8.0000000e+03   9.9980948e+02
   1.0100000e+06  -7.0000000e+03   9.9980948e+02
   1.0100000e+06  -6.0000000e+03   9.9980948e+02
   1.0100000e+06  -5.0000000e+03   9.9980948e+02
   1.0100000e+06  -4.0000000e+03   9.9980948e+02
   1.0100000e+06  -3.0000000e+03   9.9980948e+02
   1.0100000e+06  -2.0000000e+03   9.9980948e+02
   1.0100000e+06  -1.0000000e+03   9.9980948e+02
   1.0100000e+06   0.0000000e+00   9.9980948e+02
   1.0100000e+06   1.0000000e+03   9.9980948e+02
   1.0100000e+06   2.0000000e+03   9.9980948e+02
   1.0100000e+06   3.0000000e+03   9.9980948e+02
   1.0100000e+06   4.0000000e+03   9.9980948e+02
   1.0100000e+06   5.0000000e+03   9.9980948e+02
   1.0100000e+06   6.0000000e+03   9.9980948e+02
   1.0100000e+06   7.0000000e+03   9.9980948e+02
   1.0100000e+06   8.0000000e+03   9.9980948e+02
   1.0100000e+06   9.0000000e+03   9.9980948e+02
   1.0100000e+06   1.0000000e+04   9.9980948e+02
   1.0110000e+06  -1.0000000e+04   9.8729515e+02
   1.0110000e+06  -9.0000000e+03   9.8729515e+02
   1.0110000e+06  -8.0000000e+03   9.8729515e+02
   1.0110000e+06  -7.0000000e+03   9.8729515e+02
   1.0110000e+06  -6.0000000e+03   9.8729515e+02
   1.0110000e+06  -5.0000000e+03   9.8729515e+02
   1.0110000e+06  -4.0000000e+03   9.8729515e+02
   1.0110000e+06  -3.0000000e+03   9.8729515e+02
   1.0110000e+06  -2.0000000e+03   9.8729515e+02
   1.0110000e+06  -1.0000000e+03   9.8729515e+02
   1.0110000e+06   0.0000000e+00   9.8729515e+02
   1.0110000e+06   1.0000000e+03   9.8729515e+02
   1.0110000e+06   2.0000000e+03   9.8729515e+02
   1.0110000e+06   3.0000000e+03   9.8729515e+02
   1.0110000e+06   4.0000000e+03   9.8729515e+02
   1.0110000e+06   5.0000000e+03   9.8729515e+02
   1.0110000e+06   6.0000000e+03   9.8729515e+02
   1.0110000e+06   7.0000000e+03   9.8729515e+02
   1.0110000e+06   8.0000000e+03   9.8729515e+02
   1.0110000e+06   9.0000000e+03   9.8729515e+02
   1.0110000e+06   1.0000000e+04   9.8729515e+02
   1.0120000e+06  -1.0000000e+04   9.7466770e+02
   1.0120000e+06  -9.0000000e+03   9.7466770e+02
   1.0120000e+06  -8.0000000e+03   9.7466770e+02
   1.0120000e+06  -7.0000000e+03   9.7466770e+02
   1.0120000e+06  -6.0000000e+03   9.7466770e+02
   1.0120000e+06  -5.0000000e+03   9.7466770e+02
   1.0120000e+06  -4.0000000e+03   9.7466770e+02
   1.0120000e+06  -3.0000000e+03   9.7466770e+02
   1.0120000e+06  -2.0000000e+03   9.7466770e+02
   1.0120000e+06  -1.0000000e+03   9.7466770e+02
   1.0120000e+06   0.0000000e+00   9.7466770e+02
   1.0120000e+06   1.0000000e+03   9.7466770e+02
   1.0120000e+06   2.0000000e+03   9.7466770e+02
   1.0120000e+06   3.0000000e+03   9.7466770e+02
   1.0120000e+06   4.0000000e+03   9.7466770e+02
   1.0120000e+06   5.0000000e+03   9.7466770e+02
   1.0120000e+06   6.0000000e+03   9.7466770e+02
   1.0120000e+06   7.0000000e+03   9.7466770e+02
   1.0120000e+06   8.0000000e+03   9.7466770e+02
   1.0120000e+06   9.0000000e+03   9.7466770e+02
   1.0120000e+06   1.0000000e+04   9.7466770e+02
   1.0130000e+06  -1.0000000e+04   9.6191320e+02
   1.0130000e+06  -9.0000000e+03   9.6191320e+02
   1.0130000e+06  -8.0000000e+03   9.6191320e+02
   1.0130000e+06  -7.0000000e+03   9.6191320e+02
   1.0130000e+06  -6.0000000e+03   9.6191320e+02
   1.0130000e+06  -5.0000000e+03   9.6191320e+02
   1.0130000e+06  -4.0000000e+03   9.6191320e+02
   1.0130000e+06  -3.0000000e+03   9.6191320e+02
   1.0130000e+06  -2.0000000e+03   9.6191320e+02
   1.0130000e+06  -1.0000000e+03   9.6191320e+02
   1.0130000e+06   0.0000000e+00   9.6191320e+02
   1.0130000e+06   1.0000000e+03   9.6191320e+02
   1.0130000e+06   2.0000000e+03   9.6191320e+02
   1.0130000e+06   3.0000000e+03   9.6191320e+02
   1.0130000e+06   4.0000000e+03   9.6191320e+02
   1.0130000e+06   5.0000000e+03   9.6191320e+02
   1.0130000e+06   6.0000000e+03   9.6191320e+02
   1.0130000e+06   7.0000000e+03   9.6191320e+02
   1.0130000e+06   8.0000000e+03   9.6191320e+02
   1.0130000e+06   9.0000000e+03   9.6191320e+02
   1.0130000e+06   1.0000000e+04   9.6191320e+02
   1.0140000e+06  -1.0000000e+04   9.4904573e+02
   1.0140000e+06  -9.0000000e+03   9.4904573e+02
   1.0140000e+06  -8.0000000e+03   9.4904573e+02
   1.0140000e+06  -7.0000000e+03   9.4904573e+02
   1.0140000e+06  -6.0000000e+03   9.4904573e+02
   1.0140000e+06  -5.0000000e+03   9.4904573e+02
   1.0140000e+06  -4.0000000e+03   9.4904573e+02
   1.0140000e+06  -3.0000000e+03   9.4904573e+02
   1.0140000e+06  -2.0000000e+03   9.4904573e+02
   1.0140000e+06  -1.0000000e+03   9.4904573e+02
   1.0140000e+06   0.0000000e+00   9.4904573e+02
   1.0140000e+06   1.0000000e+03   9.4904573e+02
   1.0140000e+06   2.0000000e+03   9.4904573e+02
   1.0140000e+06   3.0000000e+03   9.4904573e+02
   1.0140000e+06   4.0000000e+03   9.4904573e+02
   1.0140000e+06   5.0000000e+03   9.4904573e+02
   1.0140000e+06   6.0000000e+03   9.4904573e+02
   1.0140000e+06   7.0000000e+03   9.4904573e+02
   1.0140000e+06   8.0000000e+03   9.4904573e+02
   1.0140000e+06   9.0000000e+03   9.4904573e+02
   1.0140000e+06   1.0000000e+04   9.4904573e+02
   1.0150000e+06  -1.0000000e+04   9.3608456e+02
   1.0150000e+06  -9.0000000e+03   9.3608456e+02
   1.0150000e+06  -8.0000000e+03   9.3608456e+02
   1.0150000e+06  -7.0000000e+03   9.3608456e+02
   1.0150000e+06  -6.0000000e+03   9.3608456e+02
   1.0150000e+06  -5.0000000e+03   9.3608456e+02
   1.0150000e+06  -4.0000000e+03   9.3608456e+02
   1.0150000e+06  -3.0000000e+03   9.3608456e+02
   1.0150000e+06  -2.0000000e+03   9.3608456e+02
   1.0150000e+06  -1.0000000e+03   9.3608456e+02
   1.0150000e+06   0.0000000e+00   9.3608456e+02
   1.0150000e+06   1.0000000e+03   9.3608456e+02
   1.0150000e+06   2.0000000e+03   9.3608456e+02
   1.0150000e+06   3.0000000e+03   9.3608456e+02
   1.0150000e+06   4.0000000e+03   9.3608456e+02
   1.0150000e+06   5.0000000e+03   9.3608456e+02
   1.0150000e+06   6.0000000e+03   9.3608456e+02
   1.0150000e+06   7.0000000e+03   9.3608456e+02
   1.0150000e+06   8.0000000e+03   9.3608456e+02
   1.0150000e+06   9.0000000e+03   9.3608456e+02
   1.0150000e+06   1.0000000e+04   9.3608456e+02
   1.0160000e+06  -1.0000000e+04   9.2292301e+02
   1.0160000e+06  -9.0000000e+03   9.2292301e+02
   1.0160000e+06  -8.0000000e+03   9.2292301e+02
   1.0160000e+06  -7.0000000e+03   9.2292301e+02
   1.0160000e+06  -6.0000000e+03   9.2292301e+02
   1.0160000e+06  -5.0000000e+03   9.2292301e+02
   1.0160000e+06  -4.0000000e+03   9.2292301e+02
   1.0160000e+06  -3.0000000e+03   9.2292301e+02
   1.0160000e+06  -2.0000000e+03   9.2292301e+02
   1.0160000e+06  -1.0000000e+03   9.2292301e+02
   1.0160000e+06   0.0000000e+00   9.2292301e+02
   1.0160000e+06   1.0000000e+03   9.2292301e+02
   1.0160000e+06   2.0000000e+03   9.2292301e+02
   1.0160000e+06   3.0000000e+03   9.2292301e+02
   1.0160000e+06   4.0000000e+03   9.2292301e+02
   1.0160000e+06   5.0000000e+03   9.2292301e+02
   1.0160000e+06   6.0000000e+03   9.2292301e+02
   1.0160000e+06   7.0000000e+03   9.2292301e+02
   1.0160000e+06   8.0000000e+03   9.2292301e+02
   1.0160000e+06   9.0000000e+03   9.2292301e+02
   1.0160000e+06   1.0000000e+04   9.2292301e+02
   1.0170000e+06  -1.0000000e+04   9.0944821e+02
   1.0170000e+06  -9.0000000e+03   9.0944821e+02
   1.0170000e+06  -8.0000000e+03   9.0944821e+02
   1.0170000e+06  -7.0000000e+03   9.0944821e+02
   1.0170000e+06  -6.0000000e+03   9.0944821e+02
   1.0170000e+06  -5.0000000e+03   9.0944821e+02
   1.0170000e+06  -4.0000000e+03   9.0944821e+02
   1.0170000e+06  -3.0000000e+03   9.0944821e+02
   1.0170000e+06  -2.0000000e+03   9.0944821e+02
   1.0170000e+06  -1.0000000e+03   9.0944821e+02
   1.0170000e+06   0.0000000e+00   9.0944821e+02
   1.0170000e+06   1.0000000e+03   9.0944821e+02
   1.0170000e+06   2.0000000e+03   9.0944821e+02
   1.0170000e+06   3.0000000e+03   9.0944821e+02
   1.0170000e+06   4.0000000e+03   9.0944821e+02
   1.0170000e+06   5.0000000e+03   9.0944821e+02
   1.0170000e+06   6.0000000e+03   9.0944821e+02
   1.0170000e+06   7.0000000e+03   9.0944821e+02
   1.0170000e+06   8.0000000e+03   9.0944821e+02
   1.0170000e+06   9.0000000e+03   9.0944821e+02
   1.0170000e+06   1.0000000e+04   9.0944821e+02
   1.0180000e+06  -1.0000000e+04   8.9561506e+02
   1.0180000e+06  -9.0000000e+03   8.9561506e+02
   1.0180000e+06  -8.0000000e+03   8.9561506e+02
   1.0180000e+06  -7.0000000e+03   8.9561506e+02
   1.0180000e+06  -6.0000000e+03   8.9561506e+02
   1.0180000e+06  -5.0000000e+03   8.9561506e+02
   1.0180000e+06  -4.0000000e+03   8.9561506e+02
   1.0180000e+06  -3.0000000e+03   8.9561506e+02
   1.0180000e+06  -2.0000000e+03   8.9561506e+02
   1.0180000e+06  -1.0000000e+03   8.9561506e+02
   1.0180000e+06   0.0000000e+00   8.9561506e+02
   1.0180000e+06   1.0000000e+03   8.9561506e+02
   1.0180000e+06   2.0000000e+03   8.9561506e+02
   1.0180000e+06   3.0000000e+03   8.9561506e+02
   1.0180000e+06   4.0000000e+03   8.9561506e+02
   1.0180000e+06   5.0000000e+03   8.9561506e+02
   1.0180000e+06   6.0000000e+03   8.9561506e+02
   1.0180000e+06   7.0000000e+03   8.9561506e+02
   1.0180000e+06   8.0000000e+03   8.9561506e+02
   1.0180000e+06   9.0000000e+03   8.9561506e+02
   1.0180000e+06   1.0000000e+04   8.9561506e+02
   1.0190000e+06  -1.0000000e+04   8.8151088e+02
   1.0190000e+06  -9.0000000e+03   8.8151088e+02
   1.0190000e+06  -8.0000000e+03   8.8151088e+02
   1.0190000e+06  -7.0000000e+03   8.8151088e+02
   1.0190000e+06  -6.0000000e+03   8.8151088e+02
   1.0190000e+06  -5.0000000e+03   8.8151088e+02
   1.0190000e+06  -4.0000000e+03   8.8151088e+02
   1.0190000e+06  -3.0000000e+03   8.8151088e+02
   1.0190000e+06  -2.0000000e+03   8.8151088e+02
   1.0190000e+06  -1.0000000e+03   8.8151088e+02
   1.0190000e+06   0.0000000e+00   8.8151088e+02
   1.0190000e+06   1.0000000e+03   8.8151088e+02
   1.0190000e+06   2.0000000e+03   8.8151088e+02
   1.0190000e+06   3.0000000e+03   8.8151088e+02
   1.0190000e+06   4.0000000e+03   8.8151088e+02
   1.0190000e+06   5.0000000e+03   8.8151088e+02
   1.0190000e+06   6.0000000e+03   8.8151088e+02
   1.0190000e+06   7.0000000e+03   8.8151088e+02
   1.0190000e+06   8.0000000e+03   8.8151088e+02
   1.0190000e+06   9.0000000e+03   8.8151088e+02
   1.0190000e+06   1.0000000e+04   8.8151088e+02
   1.0200000e+06  -1.0000000e+04   8.6723672e+02
   1.0200000e+06  -9.0000000e+03   8.6723672e+02
   1.0200000e+06  -8.0000000e+03   8.6723672e+02
   1.0200000e+06  -7.0000000e+03   8.6723672e+02
   1.0200000e+06  -6.0000000e+03   8.6723672e+02
   1.0200000e+06  -5.0000000e+03   8.6723672e+02
   1.0200000e+06  -4.0000000e+03   8.6723672e+02
   1.0200000e+06  -3.0000000e+03   8.6723672e+02
   1.0200000e+06  -2.0000000e+03   8.6723672e+02
   1.0200000e+06  -1.0000000e+03   8.6723672e+02
   1.0200000e+06   0.0000000e+00   8.6723672e+02
   1.0200000e+06   1.0000000e+03   8.6723672e+02
   1.0200000e+06   2.0000000e+03   8.6723672e+02
   1.0200000e+06   3.0000000e+03   8.6723672e+02
   1.0200000e+06   4.0000000e+03   8.6723672e+02
   1.0200000e+06   5.0000000e+03   8.6723672e+02
   1.0200000e+06   6.0000000e+03   8.6723672e+02
   1.0200000e+06   7.0000000e+03   8.6723672e+02
   1.0200000e+06   8.0000000e+03   8.6723672e+02
   1.0200000e+06   9.0000000e+03   8.6723672e+02
   1.0200000e+06   1.0000000e+04   8.6723672e+02
   1.0210000e+06  -1.0000000e+04   8.5274618e+02
   1.0210000e+06  -9.0000000e+03   8.5274618e+02
   1.0210000e+06  -8.0000000e+03   8.5274618e+02
   1.0210000e+06  -7.0000000e+03   8.5274618e+02
   1.0210000e+06  -6.0000000e+03   8.5274618e+02
   1.0210000e+06  -5.0000000e+03   8.5274618e+02
   1.0210000e+06  -4.0000000e+03   8.5274618e+02
   1.0210000e+06  -3.0000000e+03   8.5274618e+02
   1.0210000e+06  -2.0000000e+03   8.5274618e+02
   1.0210000e+06  -1.0000000e+03   8.5274618e+02
   1.0210000e+06   0.0000000e+00   8.5274618e+02
   1.0210000e+06   1.0000000e+03   8.5274618e+02
   1.0210000e+06   2.0000000e+03   8.5274618e+02
   1.0210000e+06   3.0000000e+03   8.5274618e+02
   1.0210000e+06   4.0000000e+03   8.5274618e+02
   1.0210000e+06   5.0000000e+03   8.5274618e+02
   1.0210000e+06   6.0000000e+03   8.5274618e+02
   1.0210000e+06   7.0000000e+03   8.5274618e+02
   1.0210000e+06   8.0000000e+03   8.5274618e+02
   1.0210000e+06   9.0000000e+03   8.5274618e+02
   1.0210000e+06   1.0000000e+04   8.5274618e+02
   1.0220000e+06  -1.0000000e+04   8.3806713e+02
   1.0220000e+06  -9.0000000e+03   8.3806713e+02
   1.0220000e+06  -8.0000000e+03   8.3806713e+02
   1.0220000e+06  -7.0000000e+03   8.3806713e+02
   1.0220000e+06  -6.0000000e+03   8.3806713e+02
   1.0220000e+06  -5.0000000e+03   8.3806713e+02
   1.0220000e+06  -4.0000000e+03   8.3806713e+02
   1.0220000e+06  -3.0000000e+03   8.3806713e+02
   1.0220000e+06  -2.0000000e+03   8.3806713e+02
   1.0220000e+06  -1.0000000e+03   8.3806713e+02
   1.0220000e+06   0.0000000e+00   8.3806713e+02
   1.0220000e+06   1.0000000e+03   8.3806713e+02
   1.0220000e+06   2.0000000e+03   8.3806713e+02
   1.0220000e+06   3.0000000e+03   8.3806713e+02
   1.0220000e+06   4.0000000e+03   8.3806713e+02
   1.0220000e+06   5.0000000e+03   8.3806713e+02
   1.0220000e+06   6.0000000e+03   8.3806713e+02
   1.0220000e+06   7.0000000e+03   8.3806713e+02
   1.0220000e+06   8.0000000e+03   8.3806713e+02
   1.0220000e+06   9.0000000e+03   8.3806713e+02
   1.0220000e+06   1.0000000e+04   8.3806713e+02
   1.0230000e+06  -1.0000000e+04   8.2334000e+02
   1.0230000e+06  -9.0000000e+03   8.2334000e+02
   1.0230000e+06  -8.0000000e+03   8.2334000e+02
   1.0230000e+06  -7.0000000e+03   8.2334000e+02
   1.0230000e+06  -6.0000000e+03   8.2334000e+02
   1.0230000e+06  -5.0000000e+03   8.2334000e+02
   1.0230000e+06  -4.0000000e+03   8.2334000e+02
   1.0230000e+06  -3.0000000e+03   8.2334000e+02
   1.0230000e+06  -2.0000000e+03   8.2334000e+02
   1.0230000e+06  -1.0000000e+03   8.2334000e+02
   1.0230000e+06   0.0000000e+00   8.2334000e+02
   1.0230000e+06   1.0000000e+03   8.2334000e+02
   1.0230000e+06   2.0000000e+03   8.2334000e+02
   1.0230000e+06   3.0000000e+03   8.2334000e+02
   1.0230000e+06   4.0000000e+03   8.2334000e+02
   1.0230000e+06   5.0000000e+03   8.2334000e+02
   1.0230000e+06   6.0000000e+03   8.2334000e+02
   1.0230000e+06   7.0000000e+03   8.2334000e+02
   1.0230000e+06   8.0000000e+03   8.2334000e+02
   1.0230000e+06   9.0000000e+03   8.2334000e+02
   1.0230000e+06   1.0000000e+04   8.2334000e+02
   1.0240000e+06  -1.0000000e+04   8.0878438e+02
   1.0240000e+06  -9.0000000e+03   8.0878438e+02
   1.0240000e+06  -8.0000000e+03   8.0878438e+02
   1.0240000e+06  -7.0000000e+03   8.0878438e+02
   1.0240000e+06  -6.0000000e+03   8.0878438e+02
   1.0240000e+06  -5.0000000e+03   8.0878438e+02
   1.0240000e+06  -4.0000000e+03   8.0878438e+02
   1.0240000e+06  -3.0000000e+03   8.0878438e+02
   1.0240000e+06  -2.0000000e+03   8.0878438e+02
   1.0240000e+06  -1.0000000e+03   8.0878438e+02
   1.0240000e+06   0.0000000e+00   8.0878438e+02
   1.0240000e+06   1.0000000e+03   8.0878438e+02
   1.0240000e+06   2.0000000e+03   8.0878438e+02
   1.0240000e+06   3.0000000e+03   8.0878438e+02
   1.0240000e+06   4.0000000e+03   8.0878438e+02
   1.0240000e+06   5.0000000e+03   8.0878438e+02
   1.0240000e+06   6.0000000e+03   8.0878438e+02
   1.0240000e+06   7.0000000e+03   8.0878438e+02
   1.0240000e+06   8.0000000e+03   8.0878438e+02
   1.0240000e+06   9.0000000e+03   8.0878438e+02
   1.0240000e+06   1.0000000e+04   8.0878438e+02
   1.0250000e+06  -1.0000000e+04   7.9419210e+02
   1.0250000e+06  -9.0000000e+03   7.9419210e+02
   1.0250000e+06  -8.0000000e+03   7.9419210e+02
   1.0250000e+06  -7.0000000e+03   7.9419210e+02
   1.0250000e+06  -6.0000000e+03   7.9419210e+02
   1.0250000e+06  -5.0000000e+03   7.9419210e+02
   1.0250000e+06  -4.0000000e+03   7.9419210e+02
   1.0250000e+06  -3.0000000e+03   7.9419210e+02
   1.0250000e+06  -2.0000000e+03   7.9419210e+02
   1.0250000e+06  -1.0000000e+03   7.9419210e+02
   1.0250000e+06   0.0000000e+00   7.9419210e+02
   1.0250000e+06   1.0000000e+03   7.9419210e+02
   1.0250000e+06   2.0000000e+03   7.9419210e+02
   1.0250000e+06   3.0000000e+03   7.9419210e+02
   1.0250000e+06   4.0000000e+03   7.9419210e+02
   1.0250000e+06   5.0000000e+03   7.9419210e+02
   1.0250000e+06   6.0000000e+03   7.9419210e+02
   1.0250000e+06   7.0000000e+03   7.9419210e+02
   1.0250000e+06   8.0000000e+03   7.9419210e+02
   1.0250000e+06   9.0000000e+03   7.9419210e+02
   1.0250000e+06   1.0000000e+04   7.9419210e+02
   1.0260000e+06  -1.0000000e+04   7.7906190e+02
   1.0260000e+06  -9.0000000e+03   7.7906190e+02
   1.0260000e+06  -8.0000000e+03   7.7906190e+02
   1.0260000e+06  -7.0000000e+03   7.7906190e+02
   1.0260000e+06  -6.0000000e+03   7.7906190e+02
   1.0260000e+06  -5.0000000e+03   7.7906190e+02
   1.0260000e+06  -4.0000000e+03   7.7906190e+02
   1.0260000e+06  -3.0000000e+03   7.7906190e+02
   1.0260000e+06  -2.0000000e+03   7.7906190e+02
   1.0260000e+06  -1.0000000e+03   7.7906190e+02
   1.0260000e+06   0.0000000e+00   7.7906190e+02
   1.0260000e+06   1.0000000e+03   7.7906190e+02
   1.0260000e+06   2.0000000e+03   7.7906190e+02
   1.0260000e+06   3.0000000e+03   7.7906190e+02
   1.0260000e+06   4.0000000e+03   7.7906190e+02
   1.0260000e+06   5.0000000e+03   7.7906190e+02
   1.0260000e+06   6.0000000e+03   7.7906190e+02
   1.0260000e+06   7.0000000e+03   7.7906190e+02
   1.0260000e+06   8.0000000e+03   7.7906190e+02
   1.0260000e+06   9.0000000e+03   7.7906190e+02
   1.0260000e+06   1.0000000e+04   7.7906190e+02
   1.0270000e+06  -1.0000000e+04   7.6295339e+02
   1.0270000e+06  -9.0000000e+03   7.6295339e+02
   1.0270000e+06  -8.0000000e+03   7.6295339e+02
   1.0270000e+06  -7.0000000e+03   7.6295339e+02
   1.0270000e+06  -6.0000000e+03   7.6295339e+02
   1.0270000e+06  -5.0000000e+03   7.6295339e+02
   1.0270000e+06  -4.0000000e+03   7.6295339e+02
   1.0270000e+06  -3.0000000e+03   7.6295339e+02
   1.0270000e+06  -2.0000000e+03   7.6295339e+02
   1.0270000e+06  -1.0000000e+03   7.6295339e+02
   1.0270000e+06   0.0000000e+00   7.6295339e+02
   1.0270000e+06   1.0000000e+03   7.6295339e+02
   1.0270000e+06   2.0000000e+03   7.6295339e+02
   1.0270000e+06   3.0000000e+03   7.6295339e+02
   1.0270000e+06   4.0000000e+03   7.6295339e+02
   1.0270000e+06   5.0000000e+03   7.6295339e+02
   1.0270000e+06   6.0000000e+03   7.6295339e+02
   1.0270000e+06   7.0000000e+03   7.6295339e+02
   1.0270000e+06   8.0000000e+03   7.6295339e+02
   1.0270000e+06   9.0000000e+03   7.6295339e+02
   1.0270000e+06   1.0000000e+04   7.6295339e+02
   1.0280000e+06  -1.0000000e+04   7.4613698e+02
   1.0280000e+06  -9.0000000e+03   7.4613698e+02
   1.0280000e+06  -8.0000000e+03   7.4613698e+02
   1.0280000e+06  -7.0000000e+03   7.4613698e+02
   1.0280000e+06  -6.0000000e+03   7.4613698e+02
   1.0280000e+06  -5.0000000e+03   7.4613698e+02
   1.0280000e+06  -4.0000000e+03   7.4613698e+02
   1.0280000e+06  -3.0000000e+03   7.4613698e+02
   1.0280000e+06  -2.0000000e+03   7.4613698e+02
   1.0280000e+06  -1.0000000e+03   7.4613698e+02
   1.0280000e+06   0.0000000e+00   7.4613698e+02
   1.0280000e+06   1.0000000e+03   7.4613698e+02
   1.0280000e+06   2.0000000e+03   7.4613698e+02
   1.0280000e+06   3.0000000e+03   7.4613698e+02
   1.0280000e+06   4.0000000e+03   7.4613698e+02
   1.0280000e+06   5.0000000e+03   7.4613698e+02
   1.0280000e+06   6.0000000e+03   7.4613698e+02
   1.0280000e+06   7.0000000e+03   7.4613698e+02
   1.0280000e+06   8.0000000e+03   7.4613698e+02
   1.0280000e+06   9.0000000e+03   7.4613698e+02
   1.0280000e+06   1.0000000e+04   7.4613698e+02
   1.0290000e+06  -1.0000000e+04   7.2924376e+02
   1.0290000e+06  -9.0000000e+03   7.2924376e+02
   1.0290000e+06  -8.0000000e+03   7.2924376e+02
   1.0290000e+06  -7.0000000e+03   7.2924376e+02
   1.0290000e+06  -6.0000000e+03   7.2924376e+02
   1.0290000e+06  -5.0000000e+03   7.2924376e+02
   1.0290000e+06  -4.0000000e+03   7.2924376e+02
   1.0290000e+06  -3.0000000e+03   7.2924376e+02
   1.0290000e+06  -2.0000000e+03   7.2924376e+02
   1.0290000e+06  -1.0000000e+03   7.2924376e+02
   1.0290000e+06   0.0000000e+00   7.2924376e+02
   1.0290000e+06   1.0000000e+03   7.2924376e+02
   1.0290000e+06   2.0000000e+03   7.2924376e+02
   1.0290000e+06   3.0000000e+03   7.2924376e+02
   1.0290000e+06   4.0000000e+03   7.2924376e+02
   1.0290000e+06   5.0000000e+03   7.2924376e+02
   1.0290000e+06   6.0000000e+03   7.2924376e+02
   1.0290000e+06   7.0000000e+03   7.2924376e+02
   1.0290000e+06   8.0000000e+03   7.2924376e+02
   1.0290000e+06   9.0000000e+03   7.2924376e+02
   1.0290000e+06   1.0000000e+04   7.2924376e+02
   1.0300000e+06  -1.0000000e+04   7.1251139e+02
   1.0300000e+06  -9.0000000e+03   7.1251139e+02
   1.0300000e+06  -8.0000000e+03   7.1251139e+02
   1.0300000e+06  -7.0000000e+03   7.1251139e+02
   1.0300000e+06  -6.0000000e+03   7.1251139e+02
   1.0300000e+06  -5.0000000e+03   7.1251139e+02
   1.0300000e+06  -4.0000000e+03   7.1251139e+02
   1.0300000e+06  -3.0000000e+03   7.1251139e+02
   1.0300000e+06  -2.0000000e+03   7.1251139e+02
   1.0300000e+06  -1.0000000e+03   7.1251139e+02
   1.0300000e+06   0.0000000e+00   7.1251139e+02
   1.0300000e+06   1.0000000e+03   7.1251139e+02
   1.0300000e+06   2.0000000e+03   7.1251139e+02
   1.0300000e+06   3.0000000e+03   7.1251139e+02
   1.0300000e+06   4.0000000e+03   7.1251139e+02
   1.0300000e+06   5.0000000e+03   7.1251139e+02
   1.0300000e+06   6.0000000e+03   7.1251139e+02
   1.0300000e+06   7.0000000e+03   7.1251139e+02
   1.0300000e+06   8.0000000e+03   7.1251139e+02
   1.0300000e+06   9.0000000e+03   7.1251139e+02
   1.0300000e+06   1.0000000e+04   7.1251139e+02
   1.0310000e+06  -1.0000000e+04   6.9563372e+02
   1.0310000e+06  -9.0000000e+03   6.9563372e+02
   1.0310000e+06  -8.0000000e+03   6.9563372e+02
   1.0310000e+06  -7.0000000e+03   6.9563372e+02
   1.0310000e+06  -6.0000000e+03   6.9563372e+02
   1.0310000e+06  -5.0000000e+03   6.9563372e+02
   1.0310000e+06  -4.0000000e+03   6.9563372e+02
   1.0310000e+06  -3.0000000e+03   6.9563372e+02
   1.0310000e+06  -2.0000000e+03   6.9563372e+02
   1.0310000e+06  -1.0000000e+03   6.9563372e+02
   1.0310000e+06   0.0000000e+00   6.9563372e+02
   1.0310000e+06   1.0000000e+03   6.9563372e+02
   1.0310000e+06   2.0000000e+03   6.9563372e+02
   1.0310000e+06   3.0000000e+03   6.9563372e+02
   1.0310000e+06   4.0000000e+03   6.9563372e+02
   1.0310000e+06   5.0000000e+03   6.9563372e+02
   1.0310000e+06   6.0000000e+03   6.9563372e+02
   1.0310000e+06   7.0000000e+03   6.9563372e+02
   1.0310000e+06   8.0000000e+03   6.9563372e+02
   1.0310000e+06   9.0000000e+03   6.9563372e+02
   1.0310000e+06   1.0000000e+04   6.9563372e+02
   1.0320000e+06  -1.0000000e+04   6.7833722e+02
   1.0320000e+06  -9.0000000e+03   6.7833722e+02
   1.0320000e+06  -8.0000000e+03   6.7833722e+02
   1.0320000e+06  -7.0000000e+03   6.7833722e+02
   1.0320000e+06  -6.0000000e+03   6.7833722e+02
   1.0320000e+06  -5.0000000e+03   6.7833722e+02
   1.0320000e+06  -4.0000000e+03   6.7833722e+02
   1.0320000e+06  -3.0000000e+03   6.7833722e+02
   1.0320000e+06  -2.0000000e+03   6.7833722e+02
   1.0320000e+06  -1.0000000e+03   6.7833722e+02
   1.0320000e+06   0.0000000e+00   6.7833722e+02
   1.0320000e+06   1.0000000e+03   6.7833722e+02
   1.0320000e+06   2.0000000e+03   6.7833722e+02
   1.0320000e+06   3.0000000e+03   6.7833722e+02
   1.0320000e+06   4.0000000e+03   6.7833722e+02
   1.0320000e+06   5.0000000e+03   6.7833722e+02
   1.0320000e+06   6.0000000e+03   6.7833722e+02
   1.0320000e+06   7.0000000e+03   6.7833722e+02
   1.0320000e+06   8.0000000e+03   6.7833722e+02
   1.0320000e+06   9.0000000e+03   6.7833722e+02
   1.0320000e+06   1.0000000e+04   6.7833722e+02
   1.0330000e+06  -1.0000000e+04   6.6060475e+02
   1.0330000e+06  -9.0000000e+03   6.6060475e+02
   1.0330000e+06  -8.0000000e+03   6.6060475e+02
   1.0330000e+06  -7.0000000e+03   6.6060475e+02
   1.0330000e+06  -6.0000000e+03   6.6060475e+02
   1.0330000e+06  -5.0000000e+03   6.6060475e+02
   1.0330000e+06  -4.0000000e+03   6.6060475e+02
   1.0330000e+06  -3.0000000e+03   6.6060475e+02
   1.0330000e+06  -2.0000000e+03   6.6060475e+02
   1.0330000e+06  -1.0000000e+03   6.6060475e+02
   1.0330000e+06   0.0000000e+00   6.6060475e+02
   1.0330000e+06   1.0000000e+03   6.6060475e+02
   1.0330000e+06   2.0000000e+03   6.6060475e+02
   1.0330000e+06   3.0000000e+03   6.6060475e+02
   1.0330000e+06   4.0000000e+03   6.6060475e+02
   1.0330000e+06   5.0000000e+03   6.6060475e+02
   1.0330000e+06   6.0000000e+03   6.6060475e+02
   1.0330000e+06   7.0000000e+03   6.6060475e+02
   1.0330000e+06   8.0000000e+03   6.6060475e+02
   1.0330000e+06   9.0000000e+03   6.6060475e+02
   1.0330000e+06   1.0000000e+04   6.6060475e+02
   1.0340000e+06  -1.0000000e+04   6.4247444e+02
   1.0340000e+06  -9.0000000e+03   6.4247444e+02
   1.0340000e+06  -8.0000000e+03   6.4247444e+02
   1.0340000e+06  -7.0000000e+03   6.4247444e+02
   1.0340000e+06  -6.0000000e+03   6.4247444e+02
   1.0340000e+06  -5.0000000e+03   6.4247444e+02
   1.0340000e+06  -4.0000000e+03   6.4247444e+02
   1.0340000e+06  -3.0000000e+03   6.4247444e+02
   1.0340000e+06  -2.0000000e+03   6.4247444e+02
   1.0340000e+06  -1.0000000e+03   6.4247444e+02
   1.0340000e+06   0.0000000e+00   6.4247444e+02
   1.0340000e+06   1.0000000e+03   6.4247444e+02
   1.0340000e+06   2.0000000e+03   6.4247444e+02
   1.0340000e+06   3.0000000e+03   6.4247444e+02
   1.0340000e+06   4.0000000e+03   6.4247444e+02
   1.0340000e+06   5.0000000e+03   6.4247444e+02
   1.0340000e+06   6.0000000e+03   6.4247444e+02
   1.0340000e+06   7.0000000e+03   6.4247444e+02
   1.0340000e+06   8.0000000e+03   6.4247444e+02
   1.0340000e+06   9.0000000e+03   6.4247444e+02
   1.0340000e+06   1.0000000e+04   6.4247444e+02
   1.0350000e+06  -1.0000000e+04   6.2395381e+02
   1.0350000e+06  -9.0000000e+03   6.2395381e+02
   1.0350000e+06  -8.0000000e+03   6.2395381e+02
   1.0350000e+06  -7.0000000e+03   6.2395381e+02
   1.0350000e+06  -6.0000000e+03   6.2395381e+02
   1.0350000e+06  -5.0000000e+03   6.2395381e+02
   1.0350000e+06  -4.0000000e+03   6.2395381e+02
   1.0350000e+06  -3.0000000e+03   6.2395381e+02
   1.0350000e+06  -2.0000000e+03   6.2395381e+02
   1.0350000e+06  -1.0000000e+03   6.2395381e+02
   1.0350000e+06   0.0000000e+00   6.2395381e+02
   1.0350000e+06   1.0000000e+03   6.2395381e+02
   1.0350000e+06   2.0000000e+03   6.2395381e+02
   1.0350000e+06   3.0000000e+03   6.2395381e+02
   1.0350000e+06   4.0000000e+03   6.2395381e+02
   1.0350000e+06   5.0000000e+03   6.2395381e+02
   1.0350000e+06   6.0000000e+03   6.2395381e+02
   1.0350000e+06   7.0000000e+03   6.2395381e+02
   1.0350000e+06   8.0000000e+03   6.2395381e+02
   1.0350000e+06   9.0000000e+03   6.2395381e+02
   1.0350000e+06   1.0000000e+04   6.2395381e+02
   1.0360000e+06  -1.0000000e+04   6.0502718e+02
   1.0360000e+06  -9.0000000e+03   6.0502718e+02
   1.0360000e+06  -8.0000000e+03   6.0502718e+02
   1.0360000e+06  -7.0000000e+03   6.0502718e+02
   1.0360000e+06  -6.0000000e+03   6.0502718e+02
   1.0360000e+06  -5.0000000e+03   6.0502718e+02
   1.0360000e+06  -4.0000000e+03   6.0502718e+02
   1.0360000e+06  -3.0000000e+03   6.0502718e+02
   1.0360000e+06  -2.0000000e+03   6.0502718e+02
   1.0360000e+06  -1.0000000e+03   6.0502718e+02
   1.0360000e+06   0.0000000e+00   6.0502718e+02
   1.0360000e+06   1.0000000e+03   6.0502718e+02
   1.0360000e+06   2.0000000e+03   6.0502718e+02
   1.0360000e+06   3.0000000e+03   6.0502718e+02
   1.0360000e+06   4.0000000e+03   6.0502718e+02
   1.0360000e+06   5.0000000e+03   6.0502718e+02
   1.0360000e+06   6.0000000e+03   6.0502718e+02
   1.0360000e+06   7.0000000e+03   6.0502718e+02
   1.0360000e+06   8.0000000e+03   6.0502718e+02
   1.0360000e+06   9.0000000e+03   6.0502718e+02
   1.0360000e+06   1.0000000e+04   6.0502718e+02
   1.0370000e+06  -1.0000000e+04   5.8556000e+02
   1.0370000e+06  -9.0000000e+03   5.8556000e+02
   1.0370000e+06  -8.0000000e+03   5.8556000e+02
   1.0370000e+06  -7.0000000e+03   5.8556000e+02
   1.0370000e+06  -6.0000000e+03   5.8556000e+02
   1.0370000e+06  -5.0000000e+03   5.8556000e+02
   1.0370000e+06  -4.0000000e+03   5.8556000e+02
   1.0370000e+06  -3.0000000e+03   5.8556000e+02
   1.0370000e+06  -2.0000000e+03   5.8556000e+02
   1.0370000e+06  -1.0000000e+03   5.8556000e+02
   1.0370000e+06   0.0000000e+00   5.8556000e+02
   1.0370000e+06   1.0000000e+03   5.8556000e+02
   1.0370000e+06   2.0000000e+03   5.8556000e+02
   1.0370000e+06   3.0000000e+03   5.8556000e+02
   1.0370000e+06   4.0000000e+03   5.8556000e+02
   1.0370000e+06   5.0000000e+03   5.8556000e+02
   1.0370000e+06   6.0000000e+03   5.8556000e+02
   1.0370000e+06   7.0000000e+03   5.8556000e+02
   1.0370000e+06   8.0000000e+03   5.8556000e+02
   1.0370000e+06   9.0000000e+03   5.8556000e+02
   1.0370000e+06   1.0000000e+04   5.8556000e+02
   1.0380000e+06  -1.0000000e+04   5.6555653e+02
   1.0380000e+06  -9.0000000e+03   5.6555653e+02
   1.0380000e+06  -8.0000000e+03   5.6555653e+02
   1.0380000e+06  -7.0000000e+03   5.6555653e+02
   1.0380000e+06  -6.0000000e+03   5.6555653e+02
   1.0380000e+06  -5.0000000e+03   5.6555653e+02
   1.0380000e+06  -4.0000000e+03   5.6555653e+02
   1.0380000e+06  -3.0000000e+03   5.6555653e+02
   1.0380000e+06  -2.0000000e+03   5.6555653e+02
   1.0380000e+06  -1.0000000e+03   5.6555653e+02
   1.0380000e+06   0.0000000e+00   5.6555653e+02
   1.0380000e+06   1.0000000e+03   5.6555653e+02
   1.0380000e+06   2.0000000e+03   5.6555653e+02
   1.0380000e+06   3.0000000e+03   5.6555653e+02
   1.0380000e+06   4.0000000e+03   5.6555653e+02
   1.0380000e+06   5.0000000e+03   5.6555653e+02
   1.0380000e+06   6.0000000e+03   5.6555653e+02
   1.0380000e+06   7.0000000e+03   5.6555653e+02
   1.0380000e+06   8.0000000e+03   5.6555653e+02
   1.0380000e+06   9.0000000e+03   5.6555653e+02
   1.0380000e+06   1.0000000e+04   5.6555653e+02
   1.0390000e+06  -1.0000000e+04   5.4487214e+02
   1.0390000e+06  -9.0000000e+03   5.4487214e+02
   1.0390000e+06  -8.0000000e+03   5.4487214e+02
   1.0390000e+06  -7.0000000e+03   5.4487214e+02
   1.0390000e+06  -6.0000000e+03   5.4487214e+02
   1.0390000e+06  -5.0000000e+03   5.4487214e+02
   1.0390000e+06  -4.0000000e+03   5.4487214e+02
   1.0390000e+06  -3.0000000e+03   5.4487214e+02
   1.0390000e+06  -2.0000000e+03   5.4487214e+02
   1.0390000e+06  -1.0000000e+03   5.4487214e+02
   1.0390000e+06   0.0000000e+00   5.4487214e+02
   1.0390000e+06   1.0000000e+03   5.4487214e+02
   1.0390000e+06   2.0000000e+03   5.4487214e+02
   1.0390000e+06   3.0000000e+03   5.4487214e+02
   1.0390000e+06   4.0000000e+03   5.4487214e+02
   1.0390000e+06   5.0000000e+03   5.4487214e+02
   1.0390000e+06   6.0000000e+03   5.4487214e+02
   1.0390000e+06   7.0000000e+03   5.4487214e+02
   1.0390000e+06   8.0000000e+03   5.4487214e+02
   1.0390000e+06   9.0000000e+03   5.4487214e+02
   1.0390000e+06   1.0000000e+04   5.4487214e+02
   1.0400000e+06  -1.0000000e+04   5.2311564e+02
   1.0400000e+06  -9.0000000e+03   5.2311564e+02
   1.0400000e+06  -8.0000000e+03   5.2311564e+02
   1.0400000e+06  -7.0000000e+03   5.2311564e+02
   1.0400000e+06  -6.0000000e+03   5.2311564e+02
   1.0400000e+06  -5.0000000e+03   5.2311564e+02
   1.0400000e+06  -4.0000000e+03   5.2311564e+02
   1.0400000e+06  -3.0000000e+03   5.2311564e+02
   1.0400000e+06  -2.0000000e+03   5.2311564e+02
   1.0400000e+06  -1.0000000e+03   5.2311564e+02
   1.0400000e+06   0.0000000e+00   5.2311564e+02
   1.0400000e+06   1.0000000e+03   5.2311564e+02
   1.0400000e+06   2.0000000e+03   5.2311564e+02
   1.0400000e+06   3.0000000e+03   5.2311564e+02
   1.0400000e+06   4.0000000e+03   5.2311564e+02
   1.0400000e+06   5.0000000e+03   5.2311564e+02
   1.0400000e+06   6.0000000e+03   5.2311564e+02
   1.0400000e+06   7.0000000e+03   5.2311564e+02
   1.0400000e+06   8.0000000e+03   5.2311564e+02
   1.0400000e+06   9.0000000e+03   5.2311564e+02
   1.0400000e+06   1.0000000e+04   5.2311564e+02
   1.0410000e+06  -1.0000000e+04   5.0015772e+02
   1.0410000e+06  -9.0000000e+03   5.0015772e+02
   1.0410000e+06  -8.0000000e+03   5.0015772e+02
   1.0410000e+06  -7.0000000e+03   5.0015772e+02
   1.0410000e+06  -6.0000000e+03   5.0015772e+02
   1.0410000e+06  -5.0000000e+03   5.0015772e+02
   1.0410000e+06  -4.0000000e+03   5.0015772e+02
   1.0410000e+06  -3.0000000e+03   5.0015772e+02
   1.0410000e+06  -2.0000000e+03   5.0015772e+02
   1.0410000e+06  -1.0000000e+03   5.0015772e+02
   1.0410000e+06   0.0000000e+00   5.0015772e+02
   1.0410000e+06   1.0000000e+03   5.0015772e+02
   1.0410000e+06   2.0000000e+03   5.0015772e+02
   1.0410000e+06   3.0000000e+03   5.0015772e+02
   1.0410000e+06   4.0000000e+03   5.0015772e+02
   1.0410000e+06   5.0000000e+03   5.0015772e+02
   1.0410000e+06   6.0000000e+03   5.0015772e+02
   1.0410000e+06   7.0000000e+03   5.0015772e+02
   1.0410000e+06   8.0000000e+03   5.0015772e+02
   1.0410000e+06   9.0000000e+03   5.0015772e+02
   1.0410000e+06   1.0000000e+04   5.0015772e+02
   1.0420000e+06  -1.0000000e+04   4.7657235e+02
   1.0420000e+06  -9.0000000e+03   4.7657235e+02
   1.0420000e+06  -8.0000000e+03   4.7657235e+02
   1.0420000e+06  -7.0000000e+03   4.7657235e+02
   1.0420000e+06  -6.0000000e+03   4.7657235e+02
   1.0420000e+06  -5.0000000e+03   4.7657235e+02
   1.0420000e+06  -4.0000000e+03   4.7657235e+02
   1.0420000e+06  -3.0000000e+03   4.7657235e+02
   1.0420000e+06  -2.0000000e+03   4.7657235e+02
   1.0420000e+06  -1.0000000e+03   4.7657235e+02
   1.0420000e+06   0.0000000e+00   4.7657235e+02
   1.0420000e+06   1.0000000e+03   4.7657235e+02
   1.0420000e+06   2.0000000e+03   4.7657235e+02
   1.0420000e+06   3.0000000e+03   4.7657235e+02
   1.0420000e+06   4.0000000e+03   4.7657235e+02
   1.0420000e+06   5.0000000e+03   4.7657235e+02
   1.0420000e+06   6.0000000e+03   4.7657235e+02
   1.0420000e+06   7.0000000e+03   4.7657235e+02
   1.0420000e+06   8.0000000e+03   4.7657235e+02
   1.0420000e+06   9.0000000e+03   4.7657235e+02
   1.0420000e+06   1.0000000e+04   4.7657235e+02
   1.0430000e+06  -1.0000000e+04   4.5239595e+02
   1.0430000e+06  -9.0000000e+03   4.5239595e+02
   1.0430000e+06  -8.0000000e+03   4.5239595e+02
   1.0430000e+06  -7.0000000e+03   4.5239595e+02
   1.0430000e+06  -6.0000000e+03   4.5239595e+02
   1.0430000e+06  -5.0000000e+03   4.5239595e+02
   1.0430000e+06  -4.0000000e+03   4.5239595e+02
   1.0430000e+06  -3.0000000e+03   4.5239595e+02
   1.0430000e+06  -2.0000000e+03   4.5239595e+02
   1.0430000e+06  -1.0000000e+03   4.5239595e+02
   1.0430000e+06   0.0000000e+00   4.5239595e+02
   1.0430000e+06   1.0000000e+03   4.5239595e+02
   1.0430000e+06   2.0000000e+03   4.5239595e+02
   1.0430000e+06   3.0000000e+03   4.5239595e+02
   1.0430000e+06   4.0000000e+03   4.5239595e+02
   1.0430000e+06   5.0000000e+03   4.5239595e+02
   1.0430000e+06   6.0000000e+03   4.5239595e+02
   1.0430000e+06   7.0000000e+03   4.5239595e+02
   1.0430000e+06   8.0000000e+03   4.5239595e+02
   1.0430000e+06   9.0000000e+03   4.5239595e+02
   1.0430000e+06   1.0000000e+04   4.5239595e+02
   1.0440000e+06  -1.0000000e+04   4.2774730e+02
   1.0440000e+06  -9.0000000e+03   4.2774730e+02
   1.0440000e+06  -8.0000000e+03   4.2774730e+02
   1.0440000e+06  -7.0000000e+03   4.2774730e+02
   1.0440000e+06  -6.0000000e+03   4.2774730e+02
   1.0440000e+06  -5.0000000e+03   4.2774730e+02
   1.0440000e+06  -4.0000000e+03   4.2774730e+02
   1.0440000e+06  -3.0000000e+03   4.2774730e+02
   1.0440000e+06  -2.0000000e+03   4.2774730e+02
   1.0440000e+06  -1.0000000e+03   4.2774730e+02
   1.0440000e+06   0.0000000e+00   4.2774730e+02
   1.0440000e+06   1.0000000e+03   4.2774730e+02
   1.0440000e+06   2.0000000e+03   4.2774730e+02
   1.0440000e+06   3.0000000e+03   4.2774730e+02
   1.0440000e+06   4.0000000e+03   4.2774730e+02
   1.0440000e+06   5.0000000e+03   4.2774730e+02
   1.0440000e+06   6.0000000e+03   4.2774730e+02
   1.0440000e+06   7.0000000e+03   4.2774730e+02
   1.0440000e+06   8.0000000e+03   4.2774730e+02
   1.0440000e+06   9.0000000e+03   4.2774730e+02
   1.0440000e+06   1.0000000e+04   4.2774730e+02
   1.0450000e+06  -1.0000000e+04   4.0325206e+02
   1.0450000e+06  -9.0000000e+03   4.0325206e+02
   1.0450000e+06  -8.0000000e+03   4.0325206e+02
   1.0450000e+06  -7.0000000e+03   4.0325206e+02
   1.0450000e+06  -6.0000000e+03   4.0325206e+02
   1.0450000e+06  -5.0000000e+03   4.0325206e+02
   1.0450000e+06  -4.0000000e+03   4.0325206e+02
   1.0450000e+06  -3.0000000e+03   4.0325206e+02
   1.0450000e+06  -2.0000000e+03   4.0325206e+02
   1.0450000e+06  -1.0000000e+03   4.0325206e+02
   1.0450000e+06   0.0000000e+00   4.0325206e+02
   1.0450000e+06   1.0000000e+03   4.0325206e+02
   1.0450000e+06   2.0000000e+03   4.0325206e+02
   1.0450000e+06   3.0000000e+03   4.0325206e+02
   1.0450000e+06   4.0000000e+03   4.0325206e+02
   1.0450000e+06   5.0000000e+03   4.0325206e+02
   1.0450000e+06   6.0000000e+03   4.0325206e+02
   1.0450000e+06   7.0000000e+03   4.0325206e+02
   1.0450000e+06   8.0000000e+03   4.0325206e+02
   1.0450000e+06   9.0000000e+03   4.0325206e+02
   1.0450000e+06   1.0000000e+04   4.0325206e+02
   1.0460000e+06  -1.0000000e+04   3.7807805e+02
   1.0460000e+06  -9.0000000e+03   3.7807805e+02
   1.0460000e+06  -8.0000000e+03   3.7807805e+02
   1.0460000e+06  -7.0000000e+03   3.7807805e+02
   1.0460000e+06  -6.0000000e+03   3.7807805e+02
   1.0460000e+06  -5.0000000e+03   3.7807805e+02
   1.0460000e+06  -4.0000000e+03   3.7807805e+02
   1.0460000e+06  -3.0000000e+03   3.7807805e+02
   1.0460000e+06  -2.0000000e+03   3.7807805e+02
   1.0460000e+06  -1.0000000e+03   3.7807805e+02
   1.0460000e+06   0.0000000e+00   3.7807805e+02
   1.0460000e+06   1.0000000e+03   3.7807805e+02
   1.0460000e+06   2.0000000e+03   3.7807805e+02
   1.0460000e+06   3.0000000e+03   3.7807805e+02
   1.0460000e+06   4.0000000e+03   3.7807805e+02
   1.0460000e+06   5.0000000e+03   3.7807805e+02
   1.0460000e+06   6.0000000e+03   3.7807805e+02
   1.0460000e+06   7.0000000e+03   3.7807805e+02
   1.0460000e+06   8.0000000e+03   3.7807805e+02
   1.0460000e+06   9.0000000e+03   3.7807805e+02
   1.0460000e+06   1.0000000e+04   3.7807805e+02
   1.0470000e+06  -1.0000000e+04   3.4998797e+02
   1.0470000e+06  -9.0000000e+03   3.4998797e+02
   1.0470000e+06  -8.0000000e+03   3.4998797e+02
   1.0470000e+06  -7.0000000e+03   3.4998797e+02
   1.0470000e+06  -6.0000000e+03   3.4998797e+02
   1.0470000e+06  -5.0000000e+03   3.4998797e+02
   1.0470000e+06  -4.0000000e+03   3.4998797e+02
   1.0470000e+06  -3.0000000e+03   3.4998797e+02
   1.0470000e+06  -2.0000000e+03   3.4998797e+02
   1.0470000e+06  -1.0000000e+03   3.4998797e+02
   1.0470000e+06   0.0000000e+00   3.4998797e+02
   1.0470000e+06   1.0000000e+03   3.4998797e+02
   1.0470000e+06   2.0000000e+03   3.4998797e+02
   1.0470000e+06   3.0000000e+03   3.4998797e+02
   1.0470000e+06   4.0000000e+03   3.4998797e+02
   1.0470000e+06   5.0000000e+03   3.4998797e+02
   1.0470000e+06   6.0000000e+03   3.4998797e+02
   1.0470000e+06   7.0000000e+03   3.4998797e+02
   1.0470000e+06   8.0000000e+03   3.4998797e+02
   1.0470000e+06   9.0000000e+03   3.4998797e+02
   1.0470000e+06   1.0000000e+04   3.4998797e+02
   1.0480000e+06  -1.0000000e+04   3.1901864e+02
   1.0480000e+06  -9.0000000e+03   3.1901864e+02
   1.0480000e+06  -8.0000000e+03   3.1901864e+02
   1.0480000e+06  -7.0000000e+03   3.1901864e+02
   1.0480000e+06  -6.0000000e+03   3.1901864e+02
   1.0480000e+06  -5.0000000e+03   3.1901864e+02
   1.0480000e+06  -4.0000000e+03   3.1901864e+02
   1.0480000e+06  -3.0000000e+03   3.1901864e+02
   1.0480000e+06  -2.0000000e+03   3.1901864e+02
   1.0480000e+06  -1.0000000e+03   3.1901864e+02
   1.0480000e+06   0.0000000e+00   3.1901864e+02
   1.0480000e+06   1.0000000e+03   3.1901864e+02
   1.0480000e+06   2.0000000e+03   3.1901864e+02
   1.0480000e+06   3.0000000e+03   3.1901864e+02
   1.0480000e+06   4.0000000e+03   3.1901864e+02
   1.0480000e+06   5.0000000e+03   3.1901864e+02
   1.0480000e+06   6.0000000e+03   3.1901864e+02
   1.0480000e+06   7.0000000e+03   3.1901864e+02
   1.0480000e+06   8.0000000e+03   3.1901864e+02
   1.0480000e+06   9.0000000e+03   3.1901864e+02
   1.0480000e+06   1.0000000e+04   3.1901864e+02
   1.0490000e+06  -1.0000000e+04   2.8765584e+02
   1.0490000e+06  -9.0000000e+03   2.8765584e+02
   1.0490000e+06  -8.0000000e+03   2.8765584e+02
   1.0490000e+06  -7.0000000e+03   2.8765584e+02
   1.0490000e+06  -6.0000000e+03   2.8765584e+02
   1.0490000e+06  -5.0000000e+03   2.8765584e+02
   1.0490000e+06  -4.0000000e+03   2.8765584e+02
   1.0490000e+06  -3.0000000e+03   2.8765584e+02
   1.0490000e+06  -2.0000000e+03   2.8765584e+02
   1.0490000e+06  -1.0000000e+03   2.8765584e+02
   1.0490000e+06   0.0000000e+00   2.8765584e+02
   1.0490000e+06   1.0000000e+03   2.8765584e+02
   1.0490000e+06   2.0000000e+03   2.8765584e+02
   1.0490000e+06   3.0000000e+03   2.8765584e+02
   1.0490000e+06   4.0000000e+03   2.8765584e+02
   1.0490000e+06   5.0000000e+03   2.8765584e+02
   1.0490000e+06   6.0000000e+03   2.8765584e+02
   1.0490000e+06   7.0000000e+03   2.8765584e+02
   1.0490000e+06   8.0000000e+03   2.8765584e+02
   1.0490000e+06   9.0000000e+03   2.8765584e+02
   1.0490000e+06   1.0000000e+04   2.8765584e+02
   1.0500000e+06  -1.0000000e+04   2.5583629e+02
   1.0500000e+06  -9.0000000e+03   2.5583629e+02
   1.0500000e+06  -8.0000000e+03   2.5583629e+02
   1.0500000e+06  -7.0000000e+03   2.5583629e+02
   1.0500000e+06  -6.0000000e+03   2.5583629e+02
   1.0500000e+06  -5.0000000e+03   2.5583629e+02
   1.0500000e+06  -4.0000000e+03   2.5583629e+02
   1.0500000e+06  -3.0000000e+03   2.5583629e+02
   1.0500000e+06  -2.0000000e+03   2.5583629e+02
   1.0500000e+06  -1.0000000e+03   2.5583629e+02
   1.0500000e+06   0.0000000e+00   2.5583629e+02
   1.0500000e+06   1.0000000e+03   2.5583629e+02
   1.0500000e+06   2.0000000e+03   2.5583629e+02
   1.0500000e+06   3.0000000e+03   2.5583629e+02
   1.0500000e+06   4.0000000e+03   2.5583629e+02
   1.0500000e+06   5.0000000e+03   2.5583629e+02
   1.0500000e+06   6.0000000e+03   2.5583629e+02
   1.0500000e+06   7.0000000e+03   2.5583629e+02
   1.0500000e+06   8.0000000e+03   2.5583629e+02
   1.0500000e+06   9.0000000e+03   2.5583629e+02
   1.0500000e+06   1.0000000e+04   2.5583629e+02
   1.0510000e+06  -1.0000000e+04   2.2101000e+02
   1.0510000e+06  -9.0000000e+03   2.2101000e+02
   1.0510000e+06  -8.0000000e+03   2.2101000e+02
   1.0510000e+06  -7.0000000e+03   2.2101000e+02
   1.0510000e+06  -6.0000000e+03   2.2101000e+02
   1.0510000e+06  -5.0000000e+03   2.2101000e+02
   1.0510000e+06  -4.0000000e+03   2.2101000e+02
   1.0510000e+06  -3.0000000e+03   2.2101000e+02
   1.0510000e+06  -2.0000000e+03   2.2101000e+02
   1.0510000e+06  -1.0000000e+03   2.2101000e+02
   1.0510000e+06   0.0000000e+00   2.2101000e+02
   1.0510000e+06   1.0000000e+03   2.2101000e+02
   1.0510000e+06   2.0000000e+03   2.2101000e+02
   1.0510000e+06   3.0000000e+03   2.2101000e+02
   1.0510000e+06   4.0000000e+03   2.2101000e+02
   1.0510000e+06   5.0000000e+03   2.2101000e+02
   1.0510000e+06   6.0000000e+03   2.2101000e+02
   1.0510000e+06   7.0000000e+03   2.2101000e+02
   1.0510000e+06   8.0000000e+03   2.2101000e+02
   1.0510000e+06   9.0000000e+03   2.2101000e+02
   1.0510000e+06   1.0000000e+04   2.2101000e+02
   1.0520000e+06  -1.0000000e+04   1.8133000e+02
   1.0520000e+06  -9.0000000e+03   1.8133000e+02
   1.0520000e+06  -8.0000000e+03   1.8133000e+02
   1.0520000e+06  -7.0000000e+03   1.8133000e+02
