1.048000000000000000e+06 0.000000000000000000e+00 -3.612441871383469447e+02
1.048000000000000000e+06 1.000000000000000000e+03 -3.669275010962956003e+02
1.048000000000000000e+06 2.000000000000000000e+03 -3.678148350535062150e+02
1.048000000000000000e+06 3.000000000000000000e+03 -3.678170398998955761e+02
1.048000000000000000e+06 4.000000000000000000e+03 -3.678170399999999631e+02
1.048000000000000000e+06 5.000000000000000000e+03 -3.678170400000000200e+02
1.048000000000000000e+06 6.000000000000000000e+03 -3.678170400000000200e+02
1.048000000000000000e+06 7.000000000000000000e+03 -3.678170400000000200e+02
1.048000000000000000e+06 8.000000000000000000e+03 -3.678170400000000200e+02
1.048000000000000000e+06 9.000000000000000000e+03 -3.678170400000000200e+02
1.048000000000000000e+06 1.000000000000000000e+04 -3.678170400000000200e+02
1.049000000000000000e+06 -1.000000000000000000e+04 -3.688534200000000283e+02
1.049000000000000000e+06 -9.000000000000000000e+03 -3.688534200000000283e+02
1.049000000000000000e+06 -8.000000000000000000e+03 -3.688534200000000283e+02
1.049000000000000000e+06 -7.000000000000000000e+03 -3.688534200000000283e+02
1.049000000000000000e+06 -6.000000000000000000e+03 -3.688534200000000283e+02
1.049000000000000000e+06 -5.000000000000000000e+03 -3.688534200000000283e+02
1.049000000000000000e+06 -4.000000000000000000e+03 -3.688534199999998577e+02
1.049000000000000000e+06 -3.000000000000000000e+03 -3.688534197938846546e+02
1.049000000000000000e+06 -2.000000000000000000e+03 -3.688488800070237517e+02
1.049000000000000000e+06 -1.000000000000000000e+03 -3.670218561111266240e+02
1.049000000000000000e+06 0.000000000000000000e+00 -3.553198916763387842e+02
1.049000000000000000e+06 1.000000000000000000e+03 -3.670218561111266240e+02
1.049000000000000000e+06 2.000000000000000000e+03 -3.688488800070237517e+02
1.049000000000000000e+06 3.000000000000000000e+03 -3.688534197938846546e+02
1.049000000000000000e+06 4.000000000000000000e+03 -3.688534199999998577e+02
1.049000000000000000e+06 5.000000000000000000e+03 -3.688534200000000283e+02
1.049000000000000000e+06 6.000000000000000000e+03 -3.688534200000000283e+02
1.049000000000000000e+06 7.000000000000000000e+03 -3.688534200000000283e+02
1.049000000000000000e+06 8.000000000000000000e+03 -3.688534200000000283e+02
1.049000000000000000e+06 9.000000000000000000e+03 -3.688534200000000283e+02
1.049000000000000000e+06 1.000000000000000000e+04 -3.688534200000000283e+02
1.050000000000000000e+06 -1.000000000000000000e+04 -3.698665799999999990e+02
1.050000000000000000e+06 -9.000000000000000000e+03 -3.698665799999999990e+02
1.050000000000000000e+06 -8.000000000000000000e+03 -3.698665799999999990e+02
1.050000000000000000e+06 -7.000000000000000000e+03 -3.698665799999999990e+02
1.050000000000000000e+06 -6.000000000000000000e+03 -3.698665799999999990e+02
1.050000000000000000e+06 -5.000000000000000000e+03 -3.698665799999999990e+02
1.050000000000000000e+06 -4.000000000000000000e+03 -3.698665799999996580e+02
1.050000000000000000e+06 -3.000000000000000000e+03 -3.698665796202370757e+02
1.050000000000000000e+06 -2.000000000000000000e+03 -3.698582151652770449e+02
1.050000000000000000e+06 -1.000000000000000000e+03 -3.664919648199449966e+02
1.050000000000000000e+06 0.000000000000000000e+00 -3.449313591222703508e+02
1.050000000000000000e+06 1.000000000000000000e+03 -3.664919648199449398e+02
1.050000000000000000e+06 2.000000000000000000e+03 -3.698582151652770449e+02
1.050000000000000000e+06 3.000000000000000000e+03 -3.698665796202370757e+02
1.050000000000000000e+06 4.000000000000000000e+03 -3.698665799999996580e+02
1.050000000000000000e+06 5.000000000000000000e+03 -3.698665799999999990e+02
1.050000000000000000e+06 6.000000000000000000e+03 -3.698665799999999990e+02
1.050000000000000000e+06 7.000000000000000000e+03 -3.698665799999999990e+02
1.050000000000000000e+06 8.000000000000000000e+03 -3.698665799999999990e+02
1.050000000000000000e+06 9.000000000000000000e+03 -3.698665799999999990e+02
1.050000000000000000e+06 1.000000000000000000e+04 -3.698665799999999990e+02
1.051000000000000000e+06 -1.000000000000000000e+04 -3.708899999999999864e+02
1.051000000000000000e+06 -9.000000000000000000e+03 -3.708899999999999864e+02
1.051000000000000000e+06 -8.000000000000000000e+03 -3.708899999999999864e+02
1.051000000000000000e+06 -7.000000000000000000e+03 -3.708899999999999864e+02
1.051000000000000000e+06 -6.000000000000000000e+03 -3.708899999999999864e+02
1.051000000000000000e+06 -5.000000000000000000e+03 -3.708899999999999864e+02
1.051000000000000000e+06 -4.000000000000000000e+03 -3.708899999999994748e+02
1.051000000000000000e+06 -3.000000000000000000e+03 -3.708899993738767762e+02
1.051000000000000000e+06 -2.000000000000000000e+03 -3.708762087190663124e+02
1.051000000000000000e+06 -1.000000000000000000e+03 -3.653262001722157493e+02
1.051000000000000000e+06 0.000000000000000000e+00 -3.297787709492812382e+02
1.051000000000000000e+06 1.000000000000000000e+03 -3.653262001722156924e+02
1.051000000000000000e+06 2.000000000000000000e+03 -3.708762087190663124e+02
1.051000000000000000e+06 3.000000000000000000e+03 -3.708899993738767762e+02
1.051000000000000000e+06 4.000000000000000000e+03 -3.708899999999994748e+02
1.051000000000000000e+06 5.000000000000000000e+03 -3.708899999999999864e+02
1.051000000000000000e+06 6.000000000000000000e+03 -3.708899999999999864e+02
1.051000000000000000e+06 7.000000000000000000e+03 -3.708899999999999864e+02
1.051000000000000000e+06 8.000000000000000000e+03 -3.708899999999999864e+02
1.051000000000000000e+06 9.000000000000000000e+03 -3.708899999999999864e+02
1.051000000000000000e+06 1.000000000000000000e+04 -3.708899999999999864e+02
1.052000000000000000e+06 -1.000000000000000000e+04 -3.719200000000000159e+02
1.052000000000000000e+06 -9.000000000000000000e+03 -3.719200000000000159e+02
1.052000000000000000e+06 -8.000000000000000000e+03 -3.719200000000000159e+02
1.052000000000000000e+06 -7.000000000000000000e+03 -3.719200000000000159e+02
1.052000000000000000e+06 -6.000000000000000000e+03 -3.719200000000000159e+02
1.052000000000000000e+06 -5.000000000000000000e+03 -3.719200000000000159e+02
1.052000000000000000e+06 -4.000000000000000000e+03 -3.719199999999992201e+02
1.052000000000000000e+06 -3.000000000000000000e+03 -3.719199990762550669e+02
1.052000000000000000e+06 -2.000000000000000000e+03 -3.718996531630989466e+02
1.052000000000000000e+06 -1.000000000000000000e+03 -3.637115001376101873e+02
1.052000000000000000e+06 0.000000000000000000e+00 -3.112669340287366708e+02
1.052000000000000000e+06 1.000000000000000000e+03 -3.637115001376101304e+02
1.052000000000000000e+06 2.000000000000000000e+03 -3.718996531630989466e+02
1.052000000000000000e+06 3.000000000000000000e+03 -3.719199990762550669e+02
1.052000000000000000e+06 4.000000000000000000e+03 -3.719199999999992201e+02
1.052000000000000000e+06 5.000000000000000000e+03 -3.719200000000000159e+02
1.052000000000000000e+06 6.000000000000000000e+03 -3.719200000000000159e+02
1.052000000000000000e+06 7.000000000000000000e+03 -3.719200000000000159e+02
1.052000000000000000e+06 8.000000000000000000e+03 -3.719200000000000159e+02
1.052000000000000000e+06 9.000000000000000000e+03 -3.719200000000000159e+02
1.052000000000000000e+06 1.000000000000000000e+04 -3.719200000000000159e+02
1.053000000000000000e+06 -1.000000000000000000e+04 -3.729599999999999795e+02
1.053000000000000000e+06 -9.000000000000000000e+03 -3.729599999999999795e+02
1.053000000000000000e+06 -8.000000000000000000e+03 -3.729599999999999795e+02
1.053000000000000000e+06 -7.000000000000000000e+03 -3.729599999999999795e+02
1.053000000000000000e+06 -6.000000000000000000e+03 -3.729599999999999795e+02
1.053000000000000000e+06 -5.000000000000000000e+03 -3.729599999999999795e+02
1.053000000000000000e+06 -4.000000000000000000e+03 -3.729599999999989564e+02
1.053000000000000000e+06 -3.000000000000000000e+03 -3.729599987804785428e+02
1.053000000000000000e+06 -2.000000000000000000e+03 -3.729331382526557377e+02
1.053000000000000000e+06 -1.000000000000000000e+03 -3.621231976778104240e+02
1.053000000000000000e+06 0.000000000000000000e+00 -2.928862597083191872e+02
1.053000000000000000e+06 1.000000000000000000e+03 -3.621231976778103672e+02
1.053000000000000000e+06 2.000000000000000000e+03 -3.729331382526557377e+02
1.053000000000000000e+06 3.000000000000000000e+03 -3.729599987804785428e+02
1.053000000000000000e+06 4.000000000000000000e+03 -3.729599999999989564e+02
1.053000000000000000e+06 5.000000000000000000e+03 -3.729599999999999795e+02
1.053000000000000000e+06 6.000000000000000000e+03 -3.729599999999999795e+02
1.053000000000000000e+06 7.000000000000000000e+03 -3.729599999999999795e+02
1.053000000000000000e+06 8.000000000000000000e+03 -3.729599999999999795e+02
1.053000000000000000e+06 9.000000000000000000e+03 -3.729599999999999795e+02
1.053000000000000000e+06 1.000000000000000000e+04 -3.729599999999999795e+02
1.054000000000000000e+06 -1.000000000000000000e+04 -3.740000000000000000e+02
1.054000000000000000e+06 -9.000000000000000000e+03 -3.740000000000000000e+02
1.054000000000000000e+06 -8.000000000000000000e+03 -3.740000000000000000e+02
1.054000000000000000e+06 -7.000000000000000000e+03 -3.740000000000000000e+02
1.054000000000000000e+06 -6.000000000000000000e+03 -3.740000000000000000e+02
1.054000000000000000e+06 -5.000000000000000000e+03 -3.740000000000000000e+02
1.054000000000000000e+06 -4.000000000000000000e+03 -3.739999999999988063e+02
1.054000000000000000e+06 -3.000000000000000000e+03 -3.739999985593056522e+02
1.054000000000000000e+06 -2.000000000000000000e+03 -3.739682665950671208e+02
1.054000000000000000e+06 -1.000000000000000000e+03 -3.611978307345147527e+02
1.054000000000000000e+06 0.000000000000000000e+00 -2.794040531093234563e+02
1.054000000000000000e+06 1.000000000000000000e+03 -3.611978307345146959e+02
1.054000000000000000e+06 2.000000000000000000e+03 -3.739682665950671208e+02
1.054000000000000000e+06 3.000000000000000000e+03 -3.739999985593056522e+02
1.054000000000000000e+06 4.000000000000000000e+03 -3.739999999999988063e+02
1.054000000000000000e+06 5.000000000000000000e+03 -3.740000000000000000e+02
1.054000000000000000e+06 6.000000000000000000e+03 -3.740000000000000000e+02
1.054000000000000000e+06 7.000000000000000000e+03 -3.740000000000000000e+02
1.054000000000000000e+06 8.000000000000000000e+03 -3.740000000000000000e+02
1.054000000000000000e+06 9.000000000000000000e+03 -3.740000000000000000e+02
1.054000000000000000e+06 1.000000000000000000e+04 -3.740000000000000000e+02
1.055000000000000000e+06 -1.000000000000000000e+04 -3.750442899999999895e+02
1.055000000000000000e+06 -9.000000000000000000e+03 -3.750442899999999895e+02
1.055000000000000000e+06 -8.000000000000000000e+03 -3.750442899999999895e+02
1.055000000000000000e+06 -7.000000000000000000e+03 -3.750442899999999895e+02
1.055000000000000000e+06 -6.000000000000000000e+03 -3.750442899999999895e+02
1.055000000000000000e+06 -5.000000000000000000e+03 -3.750442899999999895e+02
1.055000000000000000e+06 -4.000000000000000000e+03 -3.750442899999987389e+02
1.055000000000000000e+06 -3.000000000000000000e+03 -3.750442884770019987e+02
1.055000000000000000e+06 -2.000000000000000000e+03 -3.750107437372097365e+02
1.055000000000000000e+06 -1.000000000000000000e+03 -3.615107616763387455e+02
1.055000000000000000e+06 0.000000000000000000e+00 -2.750442899999999895e+02
1.055000000000000000e+06 1.000000000000000000e+03 -3.615107616763387455e+02
1.055000000000000000e+06 2.000000000000000000e+03 -3.750107437372097365e+02
1.055000000000000000e+06 3.000000000000000000e+03 -3.750442884770019987e+02
1.055000000000000000e+06 4.000000000000000000e+03 -3.750442899999987389e+02
1.055000000000000000e+06 5.000000000000000000e+03 -3.750442899999999895e+02
1.055000000000000000e+06 6.000000000000000000e+03 -3.750442899999999895e+02
1.055000000000000000e+06 7.000000000000000000e+03 -3.750442899999999895e+02
1.055000000000000000e+06 8.000000000000000000e+03 -3.750442899999999895e+02
1.055000000000000000e+06 9.000000000000000000e+03 -3.750442899999999895e+02
1.055000000000000000e+06 1.000000000000000000e+04 -3.750442899999999895e+02
1.056000000000000000e+06 -1.000000000000000000e+04 -3.761399999999999864e+02
1.056000000000000000e+06 -9.000000000000000000e+03 -3.761399999999999864e+02
1.056000000000000000e+06 -8.000000000000000000e+03 -3.761399999999999864e+02
1.056000000000000000e+06 -7.000000000000000000e+03 -3.761399999999999864e+02
1.056000000000000000e+06 -6.000000000000000000e+03 -3.761399999999999864e+02
1.056000000000000000e+06 -5.000000000000000000e+03 -3.761399999999999864e+02
1.056000000000000000e+06 -4.000000000000000000e+03 -3.761399999999987926e+02
1.056000000000000000e+06 -3.000000000000000000e+03 -3.761399985593056385e+02
1.056000000000000000e+06 -2.000000000000000000e+03 -3.761082665950671071e+02
1.056000000000000000e+06 -1.000000000000000000e+03 -3.633378307345146823e+02
1.056000000000000000e+06 0.000000000000000000e+00 -2.815440531093234426e+02
1.056000000000000000e+06 1.000000000000000000e+03 -3.633378307345147391e+02
1.056000000000000000e+06 2.000000000000000000e+03 -3.761082665950671071e+02
1.056000000000000000e+06 3.000000000000000000e+03 -3.761399985593056385e+02
1.056000000000000000e+06 4.000000000000000000e+03 -3.761399999999987926e+02
1.056000000000000000e+06 5.000000000000000000e+03 -3.761399999999999864e+02
1.056000000000000000e+06 6.000000000000000000e+03 -3.761399999999999864e+02
1.056000000000000000e+06 7.000000000000000000e+03 -3.761399999999999864e+02
1.056000000000000000e+06 8.000000000000000000e+03 -3.761399999999999864e+02
1.056000000000000000e+06 9.000000000000000000e+03 -3.761399999999999864e+02
1.056000000000000000e+06 1.000000000000000000e+04 -3.761399999999999864e+02
1.057000000000000000e+06 -1.000000000000000000e+04 -3.771919300000000135e+02
1.057000000000000000e+06 -9.000000000000000000e+03 -3.771919300000000135e+02
1.057000000000000000e+06 -8.000000000000000000e+03 -3.771919300000000135e+02
1.057000000000000000e+06 -7.000000000000000000e+03 -3.771919300000000135e+02
1.057000000000000000e+06 -6.000000000000000000e+03 -3.771919300000000135e+02
1.057000000000000000e+06 -5.000000000000000000e+03 -3.771919300000000135e+02
1.057000000000000000e+06 -4.000000000000000000e+03 -3.771919299999989903e+02
1.057000000000000000e+06 -3.000000000000000000e+03 -3.771919287804785768e+02
1.057000000000000000e+06 -2.000000000000000000e+03 -3.771650682526557716e+02
1.057000000000000000e+06 -1.000000000000000000e+03 -3.663551276778104011e+02
1.057000000000000000e+06 0.000000000000000000e+00 -2.971181897083192212e+02
1.057000000000000000e+06 1.000000000000000000e+03 -3.663551276778104580e+02
1.057000000000000000e+06 2.000000000000000000e+03 -3.771650682526557716e+02
1.057000000000000000e+06 3.000000000000000000e+03 -3.771919287804785768e+02
1.057000000000000000e+06 4.000000000000000000e+03 -3.771919299999989903e+02
1.057000000000000000e+06 5.000000000000000000e+03 -3.771919300000000135e+02
1.057000000000000000e+06 6.000000000000000000e+03 -3.771919300000000135e+02
1.057000000000000000e+06 7.000000000000000000e+03 -3.771919300000000135e+02
1.057000000000000000e+06 8.000000000000000000e+03 -3.771919300000000135e+02
1.057000000000000000e+06 9.000000000000000000e+03 -3.771919300000000135e+02
1.057000000000000000e+06 1.000000000000000000e+04 -3.771919300000000135e+02
1.058000000000000000e+06 -1.000000000000000000e+04 -3.782206899999999905e+02
1.058000000000000000e+06 -9.000000000000000000e+03 -3.782206899999999905e+02
1.058000000000000000e+06 -8.000000000000000000e+03 -3.782206899999999905e+02
1.058000000000000000e+06 -7.000000000000000000e+03 -3.782206899999999905e+02
1.058000000000000000e+06 -6.000000000000000000e+03 -3.782206899999999905e+02
1.058000000000000000e+06 -5.000000000000000000e+03 -3.782206899999999905e+02
1.058000000000000000e+06 -4.000000000000000000e+03 -3.782206899999991947e+02
1.058000000000000000e+06 -3.000000000000000000e+03 -3.782206890762550415e+02
1.058000000000000000e+06 -2.000000000000000000e+03 -3.782003431630989212e+02
1.058000000000000000e+06 -1.000000000000000000e+03 -3.700121901376101050e+02
1.058000000000000000e+06 0.000000000000000000e+00 -3.175676240287366454e+02
1.058000000000000000e+06 1.000000000000000000e+03 -3.700121901376101050e+02
1.058000000000000000e+06 2.000000000000000000e+03 -3.782003431630989212e+02
1.058000000000000000e+06 3.000000000000000000e+03 -3.782206890762550415e+02
1.058000000000000000e+06 4.000000000000000000e+03 -3.782206899999991947e+02
1.058000000000000000e+06 5.000000000000000000e+03 -3.782206899999999905e+02
1.058000000000000000e+06 6.000000000000000000e+03 -3.782206899999999905e+02
1.058000000000000000e+06 7.000000000000000000e+03 -3.782206899999999905e+02
1.058000000000000000e+06 8.000000000000000000e+03 -3.782206899999999905e+02
1.058000000000000000e+06 9.000000000000000000e+03 -3.782206899999999905e+02
1.058000000000000000e+06 1.000000000000000000e+04 -3.782206899999999905e+02
1.059000000000000000e+06 -1.000000000000000000e+04 -3.792365899999999783e+02
1.059000000000000000e+06 -9.000000000000000000e+03 -3.792365899999999783e+02
1.059000000000000000e+06 -8.000000000000000000e+03 -3.792365899999999783e+02
1.059000000000000000e+06 -7.000000000000000000e+03 -3.792365899999999783e+02
1.059000000000000000e+06 -6.000000000000000000e+03 -3.792365899999999783e+02
1.059000000000000000e+06 -5.000000000000000000e+03 -3.792365899999999783e+02
1.059000000000000000e+06 -4.000000000000000000e+03 -3.792365899999994667e+02
1.059000000000000000e+06 -3.000000000000000000e+03 -3.792365893738767681e+02
1.059000000000000000e+06 -2.000000000000000000e+03 -3.792227987190663043e+02
1.059000000000000000e+06 -1.000000000000000000e+03 -3.736727901722156844e+02
1.059000000000000000e+06 0.000000000000000000e+00 -3.381253609492812302e+02
1.059000000000000000e+06 1.000000000000000000e+03 -3.736727901722157412e+02
1.059000000000000000e+06 2.000000000000000000e+03 -3.792227987190663043e+02
1.059000000000000000e+06 3.000000000000000000e+03 -3.792365893738767681e+02
1.059000000000000000e+06 4.000000000000000000e+03 -3.792365899999994667e+02
1.059000000000000000e+06 5.000000000000000000e+03 -3.792365899999999783e+02
1.059000000000000000e+06 6.000000000000000000e+03 -3.792365899999999783e+02
1.059000000000000000e+06 7.000000000000000000e+03 -3.792365899999999783e+02
1.059000000000000000e+06 8.000000000000000000e+03 -3.792365899999999783e+02
1.059000000000000000e+06 9.000000000000000000e+03 -3.792365899999999783e+02
1.059000000000000000e+06 1.000000000000000000e+04 -3.792365899999999783e+02
1.060000000000000000e+06 -1.000000000000000000e+04 -3.802896600000000262e+02
1.060000000000000000e+06 -9.000000000000000000e+03 -3.802896600000000262e+02
1.060000000000000000e+06 -8.000000000000000000e+03 -3.802896600000000262e+02
1.060000000000000000e+06 -7.000000000000000000e+03 -3.802896600000000262e+02
1.060000000000000000e+06 -6.000000000000000000e+03 -3.802896600000000262e+02
1.060000000000000000e+06 -5.000000000000000000e+03 -3.802896600000000262e+02
1.060000000000000000e+06 -4.000000000000000000e+03 -3.802896599999996852e+02
1.060000000000000000e+06 -3.000000000000000000e+03 -3.802896596202371029e+02
1.060000000000000000e+06 -2.000000000000000000e+03 -3.802812951652770721e+02
1.060000000000000000e+06 -1.000000000000000000e+03 -3.769150448199449670e+02
1.060000000000000000e+06 0.000000000000000000e+00 -3.553544391222703780e+02
1.060000000000000000e+06 1.000000000000000000e+03 -3.769150448199450238e+02
1.060000000000000000e+06 2.000000000000000000e+03 -3.802812951652770721e+02
1.060000000000000000e+06 3.000000000000000000e+03 -3.802896596202371029e+02
1.060000000000000000e+06 4.000000000000000000e+03 -3.802896599999996852e+02
1.060000000000000000e+06 5.000000000000000000e+03 -3.802896600000000262e+02
1.060000000000000000e+06 6.000000000000000000e+03 -3.802896600000000262e+02
1.060000000000000000e+06 7.000000000000000000e+03 -3.802896600000000262e+02
1.060000000000000000e+06 8.000000000000000000e+03 -3.802896600000000262e+02
1.060000000000000000e+06 9.000000000000000000e+03 -3.802896600000000262e+02
1.060000000000000000e+06 1.000000000000000000e+04 -3.802896600000000262e+02
1.061000000000000000e+06 -1.000000000000000000e+04 -3.813431299999999737e+02
1.061000000000000000e+06 -9.000000000000000000e+03 -3.813431299999999737e+02
1.061000000000000000e+06 -8.000000000000000000e+03 -3.813431299999999737e+02
1.061000000000000000e+06 -7.000000000000000000e+03 -3.813431299999999737e+02
1.061000000000000000e+06 -6.000000000000000000e+03 -3.813431299999999737e+02
1.061000000000000000e+06 -5.000000000000000000e+03 -3.813431299999999737e+02
1.061000000000000000e+06 -4.000000000000000000e+03 -3.813431299999998032e+02
1.061000000000000000e+06 -3.000000000000000000e+03 -3.813431297938846001e+02
1.061000000000000000e+06 -2.000000000000000000e+03 -3.813385900070236971e+02
1.061000000000000000e+06 -1.000000000000000000e+03 -3.795115661111265695e+02
1.061000000000000000e+06 0.000000000000000000e+00 -3.678096016763387297e+02
1.061000000000000000e+06 1.000000000000000000e+03 -3.795115661111265695e+02
1.061000000000000000e+06 2.000000000000000000e+03 -3.813385900070236971e+02
1.061000000000000000e+06 3.000000000000000000e+03 -3.813431297938846001e+02
1.061000000000000000e+06 4.000000000000000000e+03 -3.813431299999998032e+02
1.061000000000000000e+06 5.000000000000000000e+03 -3.813431299999999737e+02
1.061000000000000000e+06 6.000000000000000000e+03 -3.813431299999999737e+02
1.061000000000000000e+06 7.000000000000000000e+03 -3.813431299999999737e+02
1.061000000000000000e+06 8.000000000000000000e+03 -3.813431299999999737e+02
1.061000000000000000e+06 9.000000000000000000e+03 -3.813431299999999737e+02
1.061000000000000000e+06 1.000000000000000000e+04 -3.813431299999999737e+02
1.062000000000000000e+06 -1.000000000000000000e+04 -3.823788099999999872e+02
1.062000000000000000e+06 -9.000000000000000000e+03 -3.823788099999999872e+02
1.062000000000000000e+06 -8.000000000000000000e+03 -3.823788099999999872e+02
1.062000000000000000e+06 -7.000000000000000000e+03 -3.823788099999999872e+02
1.062000000000000000e+06 -6.000000000000000000e+03 -3.823788099999999872e+02
1.062000000000000000e+06 -5.000000000000000000e+03 -3.823788099999999872e+02
1.062000000000000000e+06 -4.000000000000000000e+03 -3.823788099999999304e+02
1.062000000000000000e+06 -3.000000000000000000e+03 -3.823788098998955434e+02
1.062000000000000000e+06 -2.000000000000000000e+03 -3.823766050535061822e+02
1.062000000000000000e+06 -1.000000000000000000e+03 -3.814892710962955675e+02
1.062000000000000000e+06 0.000000000000000000e+00 -3.758059571383469120e+02
1.062000000000000000e+06 1.000000000000000000e+03 -3.814892710962956244e+02
1.062000000000000000e+06 2.000000000000000000e+03 -3.823766050535061822e+02
1.062000000000000000e+06 3.000000000000000000e+03 -3.823788098998955434e+02
1.062000000000000000e+06 4.000000000000000000e+03 -3.823788099999999304e+02
1.062000000000000000e+06 5.000000000000000000e+03 -3.823788099999999872e+02
1.062000000000000000e+06 6.000000000000000000e+03 -3.823788099999999872e+02
1.062000000000000000e+06 7.000000000000000000e+03 -3.823788099999999872e+02
1.062000000000000000e+06 8.000000000000000000e+03 -3.823788099999999872e+02
1.062000000000000000e+06 9.000000000000000000e+03 -3.823788099999999872e+02
1.062000000000000000e+06 1.000000000000000000e+04 -3.823788099999999872e+02
1.063000000000000000e+06 -1.000000000000000000e+04 -3.833999400000000151e+02
1.063000000000000000e+06 -9.000000000000000000e+03 -3.833999400000000151e+02
1.063000000000000000e+06 -8.000000000000000000e+03 -3.833999400000000151e+02
1.063000000000000000e+06 -7.000000000000000000e+03 -3.833999400000000151e+02
1.063000000000000000e+06 -6.000000000000000000e+03 -3.833999400000000151e+02
1.063000000000000000e+06 -5.000000000000000000e+03 -3.833999400000000151e+02
1.063000000000000000e+06 -4.000000000000000000e+03 -3.833999399999999582e+02
1.063000000000000000e+06 -3.000000000000000000e+03 -3.833999399564947907e+02
1.063000000000000000e+06 -2.000000000000000000e+03 -3.833989817342039714e+02
1.063000000000000000e+06 -1.000000000000000000e+03 -3.830133479860527359e+02
1.063000000000000000e+06 0.000000000000000000e+00 -3.805433899215449856e+02
1.063000000000000000e+06 1.000000000000000000e+03 -3.830133479860527359e+02
1.063000000000000000e+06 2.000000000000000000e+03 -3.833989817342039714e+02
1.063000000000000000e+06 3.000000000000000000e+03 -3.833999399564947907e+02
1.063000000000000000e+06 4.000000000000000000e+03 -3.833999399999999582e+02
1.063000000000000000e+06 5.000000000000000000e+03 -3.833999400000000151e+02
1.063000000000000000e+06 6.000000000000000000e+03 -3.833999400000000151e+02
1.063000000000000000e+06 7.000000000000000000e+03 -3.833999400000000151e+02
1.063000000000000000e+06 8.000000000000000000e+03 -3.833999400000000151e+02
1.063000000000000000e+06 9.000000000000000000e+03 -3.833999400000000151e+02
1.063000000000000000e+06 1.000000000000000000e+04 -3.833999400000000151e+02
1.064000000000000000e+06 -1.000000000000000000e+04 -3.844138399999999933e+02
1.064000000000000000e+06 -9.000000000000000000e+03 -3.844138399999999933e+02
1.064000000000000000e+06 -8.000000000000000000e+03 -3.844138399999999933e+02
1.064000000000000000e+06 -7.000000000000000000e+03 -3.844138399999999933e+02
1.064000000000000000e+06 -6.000000000000000000e+03 -3.844138399999999933e+02
1.064000000000000000e+06 -5.000000000000000000e+03 -3.844138399999999933e+02
1.064000000000000000e+06 -4.000000000000000000e+03 -3.844138399999999933e+02
1.064000000000000000e+06 -3.000000000000000000e+03 -3.844138399830810044e+02
1.064000000000000000e+06 -2.000000000000000000e+03 -3.844134673346827640e+02
1.064000000000000000e+06 -1.000000000000000000e+03 -3.842634960807022253e+02
1.064000000000000000e+06 0.000000000000000000e+00 -3.833029403461757738e+02
1.064000000000000000e+06 1.000000000000000000e+03 -3.842634960807022253e+02
1.064000000000000000e+06 2.000000000000000000e+03 -3.844134673346827640e+02
1.064000000000000000e+06 3.000000000000000000e+03 -3.844138399830810044e+02
1.064000000000000000e+06 4.000000000000000000e+03 -3.844138399999999933e+02
1.064000000000000000e+06 5.000000000000000000e+03 -3.844138399999999933e+02
1.064000000000000000e+06 6.000000000000000000e+03 -3.844138399999999933e+02
1.064000000000000000e+06 7.000000000000000000e+03 -3.844138399999999933e+02
1.064000000000000000e+06 8.000000000000000000e+03 -3.844138399999999933e+02
1.064000000000000000e+06 9.000000000000000000e+03 -3.844138399999999933e+02
1.064000000000000000e+06 1.000000000000000000e+04 -3.844138399999999933e+02
1.065000000000000000e+06 -1.000000000000000000e+04 -3.854614000000000260e+02
1.065000000000000000e+06 -9.000000000000000000e+03 -3.854614000000000260e+02
1.065000000000000000e+06 -8.000000000000000000e+03 -3.854614000000000260e+02
1.065000000000000000e+06 -7.000000000000000000e+03 -3.854614000000000260e+02
1.065000000000000000e+06 -6.000000000000000000e+03 -3.854614000000000260e+02
1.065000000000000000e+06 -5.000000000000000000e+03 -3.854614000000000260e+02
1.065000000000000000e+06 -4.000000000000000000e+03 -3.854614000000000260e+02
1.065000000000000000e+06 -3.000000000000000000e+03 -3.854613999941122415e+02
1.065000000000000000e+06 -2.000000000000000000e+03 -3.854612703128270823e+02
1.065000000000000000e+06 -1.000000000000000000e+03 -3.854090804602954563e+02
1.065000000000000000e+06 0.000000000000000000e+00 -3.850748079860527469e+02
1.065000000000000000e+06 1.000000000000000000e+03 -3.854090804602954563e+02
1.065000000000000000e+06 2.000000000000000000e+03 -3.854612703128270823e+02
1.065000000000000000e+06 3.000000000000000000e+03 -3.854613999941122415e+02
1.065000000000000000e+06 4.000000000000000000e+03 -3.854614000000000260e+02
1.065000000000000000e+06 5.000000000000000000e+03 -3.854614000000000260e+02
1.065000000000000000e+06 6.000000000000000000e+03 -3.854614000000000260e+02
1.065000000000000000e+06 7.000000000000000000e+03 -3.854614000000000260e+02
1.065000000000000000e+06 8.000000000000000000e+03 -3.854614000000000260e+02
1.065000000000000000e+06 9.000000000000000000e+03 -3.854614000000000260e+02
1.065000000000000000e+06 1.000000000000000000e+04 -3.854614000000000260e+02
1.066000000000000000e+06 -1.000000000000000000e+04 -3.865199999999999818e+02
1.066000000000000000e+06 -9.000000000000000000e+03 -3.865199999999999818e+02
1.066000000000000000e+06 -8.000000000000000000e+03 -3.865199999999999818e+02
1.066000000000000000e+06 -7.000000000000000000e+03 -3.865199999999999818e+02
1.066000000000000000e+06 -6.000000000000000000e+03 -3.865199999999999818e+02
1.066000000000000000e+06 -5.000000000000000000e+03 -3.865199999999999818e+02
1.066000000000000000e+06 -4.000000000000000000e+03 -3.865199999999999818e+02
1.066000000000000000e+06 -3.000000000000000000e+03 -3.865199999981664973e+02
1.066000000000000000e+06 -2.000000000000000000e+03 -3.865199596149962531e+02
1.066000000000000000e+06 -1.000000000000000000e+03 -3.865037075266622537e+02
1.066000000000000000e+06 0.000000000000000000e+00 -3.863996140005171469e+02
1.066000000000000000e+06 1.000000000000000000e+03 -3.865037075266622537e+02
1.066000000000000000e+06 2.000000000000000000e+03 -3.865199596149962531e+02
1.066000000000000000e+06 3.000000000000000000e+03 -3.865199999981664973e+02
1.066000000000000000e+06 4.000000000000000000e+03 -3.865199999999999818e+02
1.066000000000000000e+06 5.000000000000000000e+03 -3.865199999999999818e+02
1.066000000000000000e+06 6.000000000000000000e+03 -3.865199999999999818e+02
1.066000000000000000e+06 7.000000000000000000e+03 -3.865199999999999818e+02
1.066000000000000000e+06 8.000000000000000000e+03 -3.865199999999999818e+02
1.066000000000000000e+06 9.000000000000000000e+03 -3.865199999999999818e+02
1.066000000000000000e+06 1.000000000000000000e+04 -3.865199999999999818e+02
1.067000000000000000e+06 -1.000000000000000000e+04 -3.875604099999999903e+02
1.067000000000000000e+06 -9.000000000000000000e+03 -3.875604099999999903e+02
1.067000000000000000e+06 -8.000000000000000000e+03 -3.875604099999999903e+02
1.067000000000000000e+06 -7.000000000000000000e+03 -3.875604099999999903e+02
1.067000000000000000e+06 -6.000000000000000000e+03 -3.875604099999999903e+02
1.067000000000000000e+06 -5.000000000000000000e+03 -3.875604099999999903e+02
1.067000000000000000e+06 -4.000000000000000000e+03 -3.875604099999999903e+02
1.067000000000000000e+06 -3.000000000000000000e+03 -3.875604099994890817e+02
1.067000000000000000e+06 -2.000000000000000000e+03 -3.875603987464825195e+02
1.067000000000000000e+06 -1.000000000000000000e+03 -3.875558700070237137e+02
1.067000000000000000e+06 0.000000000000000000e+00 -3.875268637372097373e+02
1.067000000000000000e+06 1.000000000000000000e+03 -3.875558700070237137e+02
1.067000000000000000e+06 2.000000000000000000e+03 -3.875603987464825195e+02
1.067000000000000000e+06 3.000000000000000000e+03 -3.875604099994890817e+02
1.067000000000000000e+06 4.000000000000000000e+03 -3.875604099999999903e+02
1.067000000000000000e+06 5.000000000000000000e+03 -3.875604099999999903e+02
1.067000000000000000e+06 6.000000000000000000e+03 -3.875604099999999903e+02
1.067000000000000000e+06 7.000000000000000000e+03 -3.875604099999999903e+02
1.067000000000000000e+06 8.000000000000000000e+03 -3.875604099999999903e+02
1.067000000000000000e+06 9.000000000000000000e+03 -3.875604099999999903e+02
1.067000000000000000e+06 1.000000000000000000e+04 -3.875604099999999903e+02
1.068000000000000000e+06 -1.000000000000000000e+04 -3.885929399999999987e+02
1.068000000000000000e+06 -9.000000000000000000e+03 -3.885929399999999987e+02
1.068000000000000000e+06 -8.000000000000000000e+03 -3.885929399999999987e+02
1.068000000000000000e+06 -7.000000000000000000e+03 -3.885929399999999987e+02
1.068000000000000000e+06 -6.000000000000000000e+03 -3.885929399999999987e+02
1.068000000000000000e+06 -5.000000000000000000e+03 -3.885929399999999987e+02
1.068000000000000000e+06 -4.000000000000000000e+03 -3.885929399999999987e+02
1.068000000000000000e+06 -3.000000000000000000e+03 -3.885929399998726126e+02
1.068000000000000000e+06 -2.000000000000000000e+03 -3.885929371939105863e+02
1.068000000000000000e+06 -1.000000000000000000e+03 -3.885918079427235625e+02
1.068000000000000000e+06 0.000000000000000000e+00 -3.885845751652770446e+02
1.068000000000000000e+06 1.000000000000000000e+03 -3.885918079427235625e+02
1.068000000000000000e+06 2.000000000000000000e+03 -3.885929371939105863e+02
1.068000000000000000e+06 3.000000000000000000e+03 -3.885929399998726126e+02
1.068000000000000000e+06 4.000000000000000000e+03 -3.885929399999999987e+02
1.068000000000000000e+06 5.000000000000000000e+03 -3.885929399999999987e+02
1.068000000000000000e+06 6.000000000000000000e+03 -3.885929399999999987e+02
1.068000000000000000e+06 7.000000000000000000e+03 -3.885929399999999987e+02
1.068000000000000000e+06 8.000000000000000000e+03 -3.885929399999999987e+02
1.068000000000000000e+06 9.000000000000000000e+03 -3.885929399999999987e+02
1.068000000000000000e+06 1.000000000000000000e+04 -3.885929399999999987e+02
1.069000000000000000e+06 -1.000000000000000000e+04 -3.896134799999999814e+02
1.069000000000000000e+06 -9.000000000000000000e+03 -3.896134799999999814e+02
1.069000000000000000e+06 -8.000000000000000000e+03 -3.896134799999999814e+02
1.069000000000000000e+06 -7.000000000000000000e+03 -3.896134799999999814e+02
1.069000000000000000e+06 -6.000000000000000000e+03 -3.896134799999999814e+02
1.069000000000000000e+06 -5.000000000000000000e+03 -3.896134799999999814e+02
1.069000000000000000e+06 -4.000000000000000000e+03 -3.896134799999999814e+02
1.069000000000000000e+06 -3.000000000000000000e+03 -3.896134799999715597e+02
1.069000000000000000e+06 -2.000000000000000000e+03 -3.896134793738767712e+02
1.069000000000000000e+06 -1.000000000000000000e+03 -3.896132274038785681e+02
1.069000000000000000e+06 0.000000000000000000e+00 -3.896116135530886027e+02
1.069000000000000000e+06 1.000000000000000000e+03 -3.896132274038785681e+02
1.069000000000000000e+06 2.000000000000000000e+03 -3.896134793738767712e+02
1.069000000000000000e+06 3.000000000000000000e+03 -3.896134799999715597e+02
1.069000000000000000e+06 4.000000000000000000e+03 -3.896134799999999814e+02
1.069000000000000000e+06 5.000000000000000000e+03 -3.896134799999999814e+02
1.069000000000000000e+06 6.000000000000000000e+03 -3.896134799999999814e+02
1.069000000000000000e+06 7.000000000000000000e+03 -3.896134799999999814e+02
1.069000000000000000e+06 8.000000000000000000e+03 -3.896134799999999814e+02
1.069000000000000000e+06 9.000000000000000000e+03 -3.896134799999999814e+02
1.069000000000000000e+06 1.000000000000000000e+04 -3.896134799999999814e+02
1.070000000000000000e+06 -1.000000000000000000e+04 -3.906448100000000068e+02
1.070000000000000000e+06 -9.000000000000000000e+03 -3.906448100000000068e+02
1.070000000000000000e+06 -8.000000000000000000e+03 -3.906448100000000068e+02
1.070000000000000000e+06 -7.000000000000000000e+03 -3.906448100000000068e+02
1.070000000000000000e+06 -6.000000000000000000e+03 -3.906448100000000068e+02
1.070000000000000000e+06 -5.000000000000000000e+03 -3.906448100000000068e+02
1.070000000000000000e+06 -4.000000000000000000e+03 -3.906448100000000068e+02
1.070000000000000000e+06 -3.000000000000000000e+03 -3.906448099999943224e+02
1.070000000000000000e+06 -2.000000000000000000e+03 -3.906448098749847304e+02
1.070000000000000000e+06 -1.000000000000000000e+03 -3.906447595652337554e+02
1.070000000000000000e+06 0.000000000000000000e+00 -3.906444373346827774e+02
1.070000000000000000e+06 1.000000000000000000e+03 -3.906447595652337554e+02
1.070000000000000000e+06 2.000000000000000000e+03 -3.906448098749847304e+02
1.070000000000000000e+06 3.000000000000000000e+03 -3.906448099999943224e+02
1.070000000000000000e+06 4.000000000000000000e+03 -3.906448100000000068e+02
1.070000000000000000e+06 5.000000000000000000e+03 -3.906448100000000068e+02
1.070000000000000000e+06 6.000000000000000000e+03 -3.906448100000000068e+02
1.070000000000000000e+06 7.000000000000000000e+03 -3.906448100000000068e+02
1.070000000000000000e+06 8.000000000000000000e+03 -3.906448100000000068e+02
1.070000000000000000e+06 9.000000000000000000e+03 -3.906448100000000068e+02
1.070000000000000000e+06 1.000000000000000000e+04 -3.906448100000000068e+02
1.071000000000000000e+06 -1.000000000000000000e+04 -3.917153000000000134e+02
1.071000000000000000e+06 -9.000000000000000000e+03 -3.917153000000000134e+02
1.071000000000000000e+06 -8.000000000000000000e+03 -3.917153000000000134e+02
1.071000000000000000e+06 -7.000000000000000000e+03 -3.917153000000000134e+02
1.071000000000000000e+06 -6.000000000000000000e+03 -3.917153000000000134e+02
1.071000000000000000e+06 -5.000000000000000000e+03 -3.917153000000000134e+02
1.071000000000000000e+06 -4.000000000000000000e+03 -3.917153000000000134e+02
1.071000000000000000e+06 -3.000000000000000000e+03 -3.917152999999989902e+02
1.071000000000000000e+06 -2.000000000000000000e+03 -3.917152999776636761e+02
1.071000000000000000e+06 -1.000000000000000000e+03 -3.917152909888876593e+02
1.071000000000000000e+06 0.000000000000000000e+00 -3.917152334163853311e+02
1.071000000000000000e+06 1.000000000000000000e+03 -3.917152909888876593e+02
1.071000000000000000e+06 2.000000000000000000e+03 -3.917152999776636761e+02
1.071000000000000000e+06 3.000000000000000000e+03 -3.917152999999989902e+02
1.071000000000000000e+06 4.000000000000000000e+03 -3.917153000000000134e+02
1.071000000000000000e+06 5.000000000000000000e+03 -3.917153000000000134e+02
1.071000000000000000e+06 6.000000000000000000e+03 -3.917153000000000134e+02
1.071000000000000000e+06 7.000000000000000000e+03 -3.917153000000000134e+02
1.071000000000000000e+06 8.000000000000000000e+03 -3.917153000000000134e+02
1.071000000000000000e+06 9.000000000000000000e+03 -3.917153000000000134e+02
1.071000000000000000e+06 1.000000000000000000e+04 -3.917153000000000134e+02
1.072000000000000000e+06 -1.000000000000000000e+04 -3.927730900000000247e+02
1.072000000000000000e+06 -9.000000000000000000e+03 -3.927730900000000247e+02
1.072000000000000000e+06 -8.000000000000000000e+03 -3.927730900000000247e+02
1.072000000000000000e+06 -7.000000000000000000e+03 -3.927730900000000247e+02
1.072000000000000000e+06 -6.000000000000000000e+03 -3.927730900000000247e+02
1.072000000000000000e+06 -5.000000000000000000e+03 -3.927730900000000247e+02
1.072000000000000000e+06 -4.000000000000000000e+03 -3.927730900000000247e+02
1.072000000000000000e+06 -3.000000000000000000e+03 -3.927730899999998542e+02
1.072000000000000000e+06 -2.000000000000000000e+03 -3.927730899964288938e+02
1.072000000000000000e+06 -1.000000000000000000e+03 -3.927730885593056769e+02
1.072000000000000000e+06 0.000000000000000000e+00 -3.927730793546286350e+02
1.072000000000000000e+06 1.000000000000000000e+03 -3.927730885593056769e+02
1.072000000000000000e+06 2.000000000000000000e+03 -3.927730899964288938e+02
1.072000000000000000e+06 3.000000000000000000e+03 -3.927730899999998542e+02
1.072000000000000000e+06 4.000000000000000000e+03 -3.927730900000000247e+02
1.072000000000000000e+06 5.000000000000000000e+03 -3.927730900000000247e+02
1.072000000000000000e+06 6.000000000000000000e+03 -3.927730900000000247e+02
1.072000000000000000e+06 7.000000000000000000e+03 -3.927730900000000247e+02
1.072000000000000000e+06 8.000000000000000000e+03 -3.927730900000000247e+02
1.072000000000000000e+06 9.000000000000000000e+03 -3.927730900000000247e+02
1.072000000000000000e+06 1.000000000000000000e+04 -3.927730900000000247e+02
1.073000000000000000e+06 -1.000000000000000000e+04 -3.937782900000000268e+02
1.073000000000000000e+06 -9.000000000000000000e+03 -3.937782900000000268e+02
1.073000000000000000e+06 -8.000000000000000000e+03 -3.937782900000000268e+02
1.073000000000000000e+06 -7.000000000000000000e+03 -3.937782900000000268e+02
1.073000000000000000e+06 -6.000000000000000000e+03 -3.937782900000000268e+02
1.073000000000000000e+06 -5.000000000000000000e+03 -3.937782900000000268e+02
1.073000000000000000e+06 -4.000000000000000000e+03 -3.937782900000000268e+02
1.073000000000000000e+06 -3.000000000000000000e+03 -3.937782900000000268e+02
1.073000000000000000e+06 -2.000000000000000000e+03 -3.937782899994891181e+02
1.073000000000000000e+06 -1.000000000000000000e+03 -3.937782897938846531e+02
1.073000000000000000e+06 0.000000000000000000e+00 -3.937782884770020360e+02
1.073000000000000000e+06 1.000000000000000000e+03 -3.937782897938846531e+02
1.073000000000000000e+06 2.000000000000000000e+03 -3.937782899994891181e+02
1.073000000000000000e+06 3.000000000000000000e+03 -3.937782900000000268e+02
1.073000000000000000e+06 4.000000000000000000e+03 -3.937782900000000268e+02
1.073000000000000000e+06 5.000000000000000000e+03 -3.937782900000000268e+02
1.073000000000000000e+06 6.000000000000000000e+03 -3.937782900000000268e+02
1.073000000000000000e+06 7.000000000000000000e+03 -3.937782900000000268e+02
1.073000000000000000e+06 8.000000000000000000e+03 -3.937782900000000268e+02
1.073000000000000000e+06 9.000000000000000000e+03 -3.937782900000000268e+02
1.073000000000000000e+06 1.000000000000000000e+04 -3.937782900000000268e+02
1.074000000000000000e+06 -1.000000000000000000e+04 -3.947780500000000075e+02
1.074000000000000000e+06 -9.000000000000000000e+03 -3.947780500000000075e+02
1.074000000000000000e+06 -8.000000000000000000e+03 -3.947780500000000075e+02
1.074000000000000000e+06 -7.000000000000000000e+03 -3.947780500000000075e+02
1.074000000000000000e+06 -6.000000000000000000e+03 -3.947780500000000075e+02
1.074000000000000000e+06 -5.000000000000000000e+03 -3.947780500000000075e+02
1.074000000000000000e+06 -4.000000000000000000e+03 -3.947780500000000075e+02
1.074000000000000000e+06 -3.000000000000000000e+03 -3.947780500000000075e+02
1.074000000000000000e+06 -2.000000000000000000e+03 -3.947780499999345807e+02
1.074000000000000000e+06 -1.000000000000000000e+03 -3.947780499736127808e+02
1.074000000000000000e+06 0.000000000000000000e+00 -3.947780498050232154e+02
1.074000000000000000e+06 1.000000000000000000e+03 -3.947780499736127808e+02
1.074000000000000000e+06 2.000000000000000000e+03 -3.947780499999345807e+02
1.074000000000000000e+06 3.000000000000000000e+03 -3.947780500000000075e+02
1.074000000000000000e+06 4.000000000000000000e+03 -3.947780500000000075e+02
1.074000000000000000e+06 5.000000000000000000e+03 -3.947780500000000075e+02
1.074000000000000000e+06 6.000000000000000000e+03 -3.947780500000000075e+02
1.074000000000000000e+06 7.000000000000000000e+03 -3.947780500000000075e+02
1.074000000000000000e+06 8.000000000000000000e+03 -3.947780500000000075e+02
1.074000000000000000e+06 9.000000000000000000e+03 -3.947780500000000075e+02
1.074000000000000000e+06 1.000000000000000000e+04 -3.947780500000000075e+02
1.075000000000000000e+06 -1.000000000000000000e+04 -3.958111999999999853e+02
1.075000000000000000e+06 -9.000000000000000000e+03 -3.958111999999999853e+02
1.075000000000000000e+06 -8.000000000000000000e+03 -3.958111999999999853e+02
1.075000000000000000e+06 -7.000000000000000000e+03 -3.958111999999999853e+02
1.075000000000000000e+06 -6.000000000000000000e+03 -3.958111999999999853e+02
1.075000000000000000e+06 -5.000000000000000000e+03 -3.958111999999999853e+02
1.075000000000000000e+06 -4.000000000000000000e+03 -3.958111999999999853e+02
1.075000000000000000e+06 -3.000000000000000000e+03 -3.958111999999999853e+02
1.075000000000000000e+06 -2.000000000000000000e+03 -3.958111999999924819e+02
1.075000000000000000e+06 -1.000000000000000000e+03 -3.958111999969771091e+02
1.075000000000000000e+06 0.000000000000000000e+00 -3.958111999776636480e+02
1.075000000000000000e+06 1.000000000000000000e+03 -3.958111999969771091e+02
1.075000000000000000e+06 2.000000000000000000e+03 -3.958111999999924819e+02
1.075000000000000000e+06 3.000000000000000000e+03 -3.958111999999999853e+02
1.075000000000000000e+06 4.000000000000000000e+03 -3.958111999999999853e+02
1.075000000000000000e+06 5.000000000000000000e+03 -3.958111999999999853e+02
1.075000000000000000e+06 6.000000000000000000e+03 -3.958111999999999853e+02
1.075000000000000000e+06 7.000000000000000000e+03 -3.958111999999999853e+02
1.075000000000000000e+06 8.000000000000000000e+03 -3.958111999999999853e+02
1.075000000000000000e+06 9.000000000000000000e+03 -3.958111999999999853e+02
1.075000000000000000e+06 1.000000000000000000e+04 -3.958111999999999853e+02
1.076000000000000000e+06 -1.000000000000000000e+04 -3.968572700000000282e+02
1.076000000000000000e+06 -9.000000000000000000e+03 -3.968572700000000282e+02
1.076000000000000000e+06 -8.000000000000000000e+03 -3.968572700000000282e+02
1.076000000000000000e+06 -7.000000000000000000e+03 -3.968572700000000282e+02
1.076000000000000000e+06 -6.000000000000000000e+03 -3.968572700000000282e+02
1.076000000000000000e+06 -5.000000000000000000e+03 -3.968572700000000282e+02
1.076000000000000000e+06 -4.000000000000000000e+03 -3.968572700000000282e+02
1.076000000000000000e+06 -3.000000000000000000e+03 -3.968572700000000282e+02
1.076000000000000000e+06 -2.000000000000000000e+03 -3.968572699999992324e+02
1.076000000000000000e+06 -1.000000000000000000e+03 -3.968572699996901179e+02
1.076000000000000000e+06 0.000000000000000000e+00 -3.968572699977103184e+02
1.076000000000000000e+06 1.000000000000000000e+03 -3.968572699996901179e+02
1.076000000000000000e+06 2.000000000000000000e+03 -3.968572699999992324e+02
1.076000000000000000e+06 3.000000000000000000e+03 -3.968572700000000282e+02
1.076000000000000000e+06 4.000000000000000000e+03 -3.968572700000000282e+02
1.076000000000000000e+06 5.000000000000000000e+03 -3.968572700000000282e+02
1.076000000000000000e+06 6.000000000000000000e+03 -3.968572700000000282e+02
1.076000000000000000e+06 7.000000000000000000e+03 -3.968572700000000282e+02
1.076000000000000000e+06 8.000000000000000000e+03 -3.968572700000000282e+02
1.076000000000000000e+06 9.000000000000000000e+03 -3.968572700000000282e+02
1.076000000000000000e+06 1.000000000000000000e+04 -3.968572700000000282e+02
1.077000000000000000e+06 -1.000000000000000000e+04 -3.978984300000000189e+02
1.077000000000000000e+06 -9.000000000000000000e+03 -3.978984300000000189e+02
1.077000000000000000e+06 -8.000000000000000000e+03 -3.978984300000000189e+02
1.077000000000000000e+06 -7.000000000000000000e+03 -3.978984300000000189e+02
1.077000000000000000e+06 -6.000000000000000000e+03 -3.978984300000000189e+02
1.077000000000000000e+06 -5.000000000000000000e+03 -3.978984300000000189e+02
1.077000000000000000e+06 -4.000000000000000000e+03 -3.978984300000000189e+02
1.077000000000000000e+06 -3.000000000000000000e+03 -3.978984300000000189e+02
1.077000000000000000e+06 -2.000000000000000000e+03 -3.978984299999999621e+02
1.077000000000000000e+06 -1.000000000000000000e+03 -3.978984299999715972e+02
1.077000000000000000e+06 0.000000000000000000e+00 -3.978984299997899825e+02
1.077000000000000000e+06 1.000000000000000000e+03 -3.978984299999715972e+02
1.077000000000000000e+06 2.000000000000000000e+03 -3.978984299999999621e+02
1.077000000000000000e+06 3.000000000000000000e+03 -3.978984300000000189e+02
1.077000000000000000e+06 4.000000000000000000e+03 -3.978984300000000189e+02
1.077000000000000000e+06 5.000000000000000000e+03 -3.978984300000000189e+02
1.077000000000000000e+06 6.000000000000000000e+03 -3.978984300000000189e+02
1.077000000000000000e+06 7.000000000000000000e+03 -3.978984300000000189e+02
1.077000000000000000e+06 8.000000000000000000e+03 -3.978984300000000189e+02
1.077000000000000000e+06 9.000000000000000000e+03 -3.978984300000000189e+02
1.077000000000000000e+06 1.000000000000000000e+04 -3.978984300000000189e+02
1.078000000000000000e+06 -1.000000000000000000e+04 -3.989382499999999823e+02
1.078000000000000000e+06 -9.000000000000000000e+03 -3.989382499999999823e+02
1.078000000000000000e+06 -8.000000000000000000e+03 -3.989382499999999823e+02
1.078000000000000000e+06 -7.000000000000000000e+03 -3.989382499999999823e+02
1.078000000000000000e+06 -6.000000000000000000e+03 -3.989382499999999823e+02
1.078000000000000000e+06 -5.000000000000000000e+03 -3.989382499999999823e+02
1.078000000000000000e+06 -4.000000000000000000e+03 -3.989382499999999823e+02
