   1.0260000e+06  -1.5000000e+04  -3.4493660e+02
   1.0260000e+06  -1.4000000e+04  -3.4493660e+02
   1.0260000e+06  -1.3000000e+04  -3.4493660e+02
   1.0260000e+06  -1.2000000e+04  -3.4493660e+02
   1.0260000e+06  -1.1000000e+04  -3.4493655e+02
   1.0260000e+06  -1.0000000e+04  -3.4493596e+02
   1.0260000e+06  -9.0000000e+03  -3.4492971e+02
   1.0260000e+06  -8.0000000e+03  -3.4487896e+02
   1.0260000e+06  -7.0000000e+03  -3.4456074e+02
   1.0260000e+06  -6.0000000e+03  -3.4302782e+02
   1.0260000e+06  -5.0000000e+03  -3.3738723e+02
   1.0260000e+06  -4.0000000e+03  -3.2168289e+02
   1.0260000e+06  -3.0000000e+03  -2.8915386e+02
   1.0260000e+06  -2.0000000e+03  -2.4072072e+02
   1.0260000e+06  -1.0000000e+03  -1.9330338e+02
   1.0260000e+06   0.0000000e+00  -1.7311366e+02
   1.0260000e+06   1.0000000e+03  -1.9330338e+02
   1.0260000e+06   2.0000000e+03  -2.4072072e+02
   1.0260000e+06   3.0000000e+03  -2.8915386e+02
   1.0260000e+06   4.0000000e+03  -3.2168289e+02
   1.0260000e+06   5.0000000e+03  -3.3738723e+02
   1.0260000e+06   6.0000000e+03  -3.4302782e+02
   1.0260000e+06   7.0000000e+03  -3.4456074e+02
   1.0260000e+06   8.0000000e+03  -3.4487896e+02
   1.0260000e+06   9.0000000e+03  -3.4492971e+02
   1.0260000e+06   1.0000000e+04  -3.4493596e+02
   1.0260000e+06   1.1000000e+04  -3.4493655e+02
   1.0260000e+06   1.2000000e+04  -3.4493660e+02
   1.0260000e+06   1.3000000e+04  -3.4493660e+02
   1.0260000e+06   1.4000000e+04  -3.4493660e+02
   1.0260000e+06   1.5000000e+04  -3.4493660e+02
   1.0260000e+06   1.6000000e+04  -3.4493660e+02
   1.0260000e+06   1.7000000e+04  -3.4493660e+02
   1.0260000e+06   1.8000000e+04  -3.4493660e+02
   1.0260000e+06   1.9000000e+04  -3.4493660e+02
   1.0260000e+06   2.0000000e+04  -3.4493660e+02
   1.0260000e+06   2.1000000e+04  -3.4493660e+02
   1.0260000e+06   2.2000000e+04  -3.4493660e+02
   1.0260000e+06   2.3000000e+04  -3.4493660e+02
   1.0260000e+06   2.4000000e+04  -3.4493660e+02
   1.0260000e+06   2.5000000e+04  -3.4493660e+02
   1.0270000e+06  -2.5000000e+04  -3.4599386e+02
   1.0270000e+06  -2.4000000e+04  -3.4599386e+02
   1.0270000e+06  -2.3000000e+04  -3.4599386e+02
   1.0270000e+06  -2.2000000e+04  -3.4599386e+02
   1.0270000e+06  -2.1000000e+04  -3.4599386e+02
   1.0270000e+06  -2.0000000e+04  -3.4599386e+02
   1.0270000e+06  -1.9000000e+04  -3.4599386e+02
   1.0270000e+06  -1.8000000e+04  -3.4599386e+02
   1.0270000e+06  -1.7000000e+04  -3.4599386e+02
   1.0270000e+06  -1.6000000e+04  -3.4599386e+02
   1.0270000e+06  -1.5000000e+04  -3.4599386e+02
   1.0270000e+06  -1.4000000e+04  -3.4599386e+02
   1.0270000e+06  -1.3000000e+04  -3.4599386e+02
   1.0270000e+06  -1.2000000e+04  -3.4599385e+02
   1.0270000e+06  -1.1000000e+04  -3.4599381e+02
   1.0270000e+06  -1.0000000e+04  -3.4599317e+02
   1.0270000e+06  -9.0000000e+03  -3.4598652e+02
   1.0270000e+06  -8.0000000e+03  -3.4593242e+02
   1.0270000e+06  -7.0000000e+03  -3.4559325e+02
   1.0270000e+06  -6.0000000e+03  -3.4395943e+02
   1.0270000e+06  -5.0000000e+03  -3.3794754e+02
   1.0270000e+06  -4.0000000e+03  -3.2120945e+02
   1.0270000e+06  -3.0000000e+03  -2.8653916e+02
   1.0270000e+06  -2.0000000e+03  -2.3491787e+02
   1.0270000e+06  -1.0000000e+03  -1.8437925e+02
   1.0270000e+06   0.0000000e+00  -1.6286051e+02
   1.0270000e+06   1.0000000e+03  -1.8437925e+02
   1.0270000e+06   2.0000000e+03  -2.3491787e+02
   1.0270000e+06   3.0000000e+03  -2.8653916e+02
   1.0270000e+06   4.0000000e+03  -3.2120945e+02
   1.0270000e+06   5.0000000e+03  -3.3794754e+02
   1.0270000e+06   6.0000000e+03  -3.4395943e+02
   1.0270000e+06   7.0000000e+03  -3.4559325e+02
   1.0270000e+06   8.0000000e+03  -3.4593242e+02
   1.0270000e+06   9.0000000e+03  -3.4598652e+02
   1.0270000e+06   1.0000000e+04  -3.4599317e+02
   1.0270000e+06   1.1000000e+04  -3.4599381e+02
   1.0270000e+06   1.2000000e+04  -3.4599385e+02
   1.0270000e+06   1.3000000e+04  -3.4599386e+02
   1.0270000e+06   1.4000000e+04  -3.4599386e+02
   1.0270000e+06   1.5000000e+04  -3.4599386e+02
   1.0270000e+06   1.6000000e+04  -3.4599386e+02
   1.0270000e+06   1.7000000e+04  -3.4599386e+02
   1.0270000e+06   1.8000000e+04  -3.4599386e+02
   1.0270000e+06   1.9000000e+04  -3.4599386e+02
   1.0270000e+06   2.0000000e+04  -3.4599386e+02
   1.0270000e+06   2.1000000e+04  -3.4599386e+02
   1.0270000e+06   2.2000000e+04  -3.4599386e+02
   1.0270000e+06   2.3000000e+04  -3.4599386e+02
   1.0270000e+06   2.4000000e+04  -3.4599386e+02
   1.0270000e+06   2.5000000e+04  -3.4599386e+02
   1.0280000e+06  -2.5000000e+04  -3.4707721e+02
   1.0280000e+06  -2.4000000e+04  -3.4707721e+02
   1.0280000e+06  -2.3000000e+04  -3.4707721e+02
   1.0280000e+06  -2.2000000e+04  -3.4707721e+02
   1.0280000e+06  -2.1000000e+04  -3.4707721e+02
   1.0280000e+06  -2.0000000e+04  -3.4707721e+02
   1.0280000e+06  -1.9000000e+04  -3.4707721e+02
   1.0280000e+06  -1.8000000e+04  -3.4707721e+02
   1.0280000e+06  -1.7000000e+04  -3.4707721e+02
   1.0280000e+06  -1.6000000e+04  -3.4707721e+02
   1.0280000e+06  -1.5000000e+04  -3.4707721e+02
   1.0280000e+06  -1.4000000e+04  -3.4707721e+02
   1.0280000e+06  -1.3000000e+04  -3.4707721e+02
   1.0280000e+06  -1.2000000e+04  -3.4707720e+02
   1.0280000e+06  -1.1000000e+04  -3.4707715e+02
   1.0280000e+06  -1.0000000e+04  -3.4707648e+02
   1.0280000e+06  -9.0000000e+03  -3.4706941e+02
   1.0280000e+06  -8.0000000e+03  -3.4701189e+02
   1.0280000e+06  -7.0000000e+03  -3.4665130e+02
   1.0280000e+06  -6.0000000e+03  -3.4491427e+02
   1.0280000e+06  -5.0000000e+03  -3.3852265e+02
   1.0280000e+06  -4.0000000e+03  -3.2072730e+02
   1.0280000e+06  -3.0000000e+03  -2.8386708e+02
   1.0280000e+06  -2.0000000e+03  -2.2898514e+02
   1.0280000e+06  -1.0000000e+03  -1.7525426e+02
   1.0280000e+06   0.0000000e+00  -1.5237630e+02
   1.0280000e+06   1.0000000e+03  -1.7525426e+02
   1.0280000e+06   2.0000000e+03  -2.2898514e+02
   1.0280000e+06   3.0000000e+03  -2.8386708e+02
   1.0280000e+06   4.0000000e+03  -3.2072730e+02
   1.0280000e+06   5.0000000e+03  -3.3852265e+02
   1.0280000e+06   6.0000000e+03  -3.4491427e+02
   1.0280000e+06   7.0000000e+03  -3.4665130e+02
   1.0280000e+06   8.0000000e+03  -3.4701189e+02
   1.0280000e+06   9.0000000e+03  -3.4706941e+02
   1.0280000e+06   1.0000000e+04  -3.4707648e+02
   1.0280000e+06   1.1000000e+04  -3.4707715e+02
   1.0280000e+06   1.2000000e+04  -3.4707720e+02
   1.0280000e+06   1.3000000e+04  -3.4707721e+02
   1.0280000e+06   1.4000000e+04  -3.4707721e+02
   1.0280000e+06   1.5000000e+04  -3.4707721e+02
   1.0280000e+06   1.6000000e+04  -3.4707721e+02
   1.0280000e+06   1.7000000e+04  -3.4707721e+02
   1.0280000e+06   1.8000000e+04  -3.4707721e+02
   1.0280000e+06   1.9000000e+04  -3.4707721e+02
   1.0280000e+06   2.0000000e+04  -3.4707721e+02
   1.0280000e+06   2.1000000e+04  -3.4707721e+02
   1.0280000e+06   2.2000000e+04  -3.4707721e+02
   1.0280000e+06   2.3000000e+04  -3.4707721e+02
   1.0280000e+06   2.4000000e+04  -3.4707721e+02
   1.0280000e+06   2.5000000e+04  -3.4707721e+02
   1.0290000e+06  -2.5000000e+04  -3.4814502e+02
   1.0290000e+06  -2.4000000e+04  -3.4814502e+02
   1.0290000e+06  -2.3000000e+04  -3.4814502e+02
   1.0290000e+06  -2.2000000e+04  -3.4814502e+02
   1.0290000e+06  -2.1000000e+04  -3.4814502e+02
   1.0290000e+06  -2.0000000e+04  -3.4814502e+02
   1.0290000e+06  -1.9000000e+04  -3.4814502e+02
   1.0290000e+06  -1.8000000e+04  -3.4814502e+02
   1.0290000e+06  -1.7000000e+04  -3.4814502e+02
   1.0290000e+06  -1.6000000e+04  -3.4814502e+02
   1.0290000e+06  -1.5000000e+04  -3.4814502e+02
   1.0290000e+06  -1.4000000e+04  -3.4814502e+02
   1.0290000e+06  -1.3000000e+04  -3.4814502e+02
   1.0290000e+06  -1.2000000e+04  -3.4814501e+02
   1.0290000e+06  -1.1000000e+04  -3.4814496e+02
   1.0290000e+06  -1.0000000e+04  -3.4814425e+02
   1.0290000e+06  -9.0000000e+03  -3.4813674e+02
   1.0290000e+06  -8.0000000e+03  -3.4807575e+02
   1.0290000e+06  -7.0000000e+03  -3.4769334e+02
   1.0290000e+06  -6.0000000e+03  -3.4585121e+02
   1.0290000e+06  -5.0000000e+03  -3.3907282e+02
   1.0290000e+06  -4.0000000e+03  -3.2020068e+02
   1.0290000e+06  -3.0000000e+03  -2.8111004e+02
   1.0290000e+06  -2.0000000e+03  -2.2290719e+02
   1.0290000e+06  -1.0000000e+03  -1.6592505e+02
   1.0290000e+06   0.0000000e+00  -1.4166275e+02
   1.0290000e+06   1.0000000e+03  -1.6592505e+02
   1.0290000e+06   2.0000000e+03  -2.2290719e+02
   1.0290000e+06   3.0000000e+03  -2.8111004e+02
   1.0290000e+06   4.0000000e+03  -3.2020068e+02
   1.0290000e+06   5.0000000e+03  -3.3907282e+02
   1.0290000e+06   6.0000000e+03  -3.4585121e+02
   1.0290000e+06   7.0000000e+03  -3.4769334e+02
   1.0290000e+06   8.0000000e+03  -3.4807575e+02
   1.0290000e+06   9.0000000e+03  -3.4813674e+02
   1.0290000e+06   1.0000000e+04  -3.4814425e+02
   1.0290000e+06   1.1000000e+04  -3.4814496e+02
   1.0290000e+06   1.2000000e+04  -3.4814501e+02
   1.0290000e+06   1.3000000e+04  -3.4814502e+02
   1.0290000e+06   1.4000000e+04  -3.4814502e+02
   1.0290000e+06   1.5000000e+04  -3.4814502e+02
   1.0290000e+06   1.6000000e+04  -3.4814502e+02
   1.0290000e+06   1.7000000e+04  -3.4814502e+02
   1.0290000e+06   1.8000000e+04  -3.4814502e+02
   1.0290000e+06   1.9000000e+04  -3.4814502e+02
   1.0290000e+06   2.0000000e+04  -3.4814502e+02
   1.0290000e+06   2.1000000e+04  -3.4814502e+02
   1.0290000e+06   2.2000000e+04  -3.4814502e+02
   1.0290000e+06   2.3000000e+04  -3.4814502e+02
   1.0290000e+06   2.4000000e+04  -3.4814502e+02
   1.0290000e+06   2.5000000e+04  -3.4814502e+02
   1.0300000e+06  -2.5000000e+04  -3.4918400e+02
   1.0300000e+06  -2.4000000e+04  -3.4918400e+02
   1.0300000e+06  -2.3000000e+04  -3.4918400e+02
   1.0300000e+06  -2.2000000e+04  -3.4918400e+02
   1.0300000e+06  -2.1000000e+04  -3.4918400e+02
   1.0300000e+06  -2.0000000e+04  -3.4918400e+02
   1.0300000e+06  -1.9000000e+04  -3.4918400e+02
   1.0300000e+06  -1.8000000e+04  -3.4918400e+02
   1.0300000e+06  -1.7000000e+04  -3.4918400e+02
   1.0300000e+06  -1.6000000e+04  -3.4918400e+02
   1.0300000e+06  -1.5000000e+04  -3.4918400e+02
   1.0300000e+06  -1.4000000e+04  -3.4918400e+02
   1.0300000e+06  -1.3000000e+04  -3.4918400e+02
   1.0300000e+06  -1.2000000e+04  -3.4918399e+02
   1.0300000e+06  -1.1000000e+04  -3.4918394e+02
   1.0300000e+06  -1.0000000e+04  -3.4918318e+02
   1.0300000e+06  -9.0000000e+03  -3.4917524e+02
   1.0300000e+06  -8.0000000e+03  -3.4911072e+02
   1.0300000e+06  -7.0000000e+03  -3.4870618e+02
   1.0300000e+06  -6.0000000e+03  -3.4675746e+02
   1.0300000e+06  -5.0000000e+03  -3.3958686e+02
   1.0300000e+06  -4.0000000e+03  -3.1962274e+02
   1.0300000e+06  -3.0000000e+03  -2.7827023e+02
   1.0300000e+06  -2.0000000e+03  -2.1669964e+02
   1.0300000e+06  -1.0000000e+03  -1.5642040e+02
   1.0300000e+06   0.0000000e+00  -1.3075423e+02
   1.0300000e+06   1.0000000e+03  -1.5642040e+02
   1.0300000e+06   2.0000000e+03  -2.1669964e+02
   1.0300000e+06   3.0000000e+03  -2.7827023e+02
   1.0300000e+06   4.0000000e+03  -3.1962274e+02
   1.0300000e+06   5.0000000e+03  -3.3958686e+02
   1.0300000e+06   6.0000000e+03  -3.4675746e+02
   1.0300000e+06   7.0000000e+03  -3.4870618e+02
   1.0300000e+06   8.0000000e+03  -3.4911072e+02
   1.0300000e+06   9.0000000e+03  -3.4917524e+02
   1.0300000e+06   1.0000000e+04  -3.4918318e+02
   1.0300000e+06   1.1000000e+04  -3.4918394e+02
   1.0300000e+06   1.2000000e+04  -3.4918399e+02
   1.0300000e+06   1.3000000e+04  -3.4918400e+02
   1.0300000e+06   1.4000000e+04  -3.4918400e+02
   1.0300000e+06   1.5000000e+04  -3.4918400e+02
   1.0300000e+06   1.6000000e+04  -3.4918400e+02
   1.0300000e+06   1.7000000e+04  -3.4918400e+02
   1.0300000e+06   1.8000000e+04  -3.4918400e+02
   1.0300000e+06   1.9000000e+04  -3.4918400e+02
   1.0300000e+06   2.0000000e+04  -3.4918400e+02
   1.0300000e+06   2.1000000e+04  -3.4918400e+02
   1.0300000e+06   2.2000000e+04  -3.4918400e+02
   1.0300000e+06   2.3000000e+04  -3.4918400e+02
   1.0300000e+06   2.4000000e+04  -3.4918400e+02
   1.0300000e+06   2.5000000e+04  -3.4918400e+02
   1.0310000e+06  -2.5000000e+04  -3.5021127e+02
   1.0310000e+06  -2.4000000e+04  -3.5021127e+02
   1.0310000e+06  -2.3000000e+04  -3.5021127e+02
   1.0310000e+06  -2.2000000e+04  -3.5021127e+02
   1.0310000e+06  -2.1000000e+04  -3.5021127e+02
   1.0310000e+06  -2.0000000e+04  -3.5021127e+02
   1.0310000e+06  -1.9000000e+04  -3.5021127e+02
   1.0310000e+06  -1.8000000e+04  -3.5021127e+02
   1.0310000e+06  -1.7000000e+04  -3.5021127e+02
   1.0310000e+06  -1.6000000e+04  -3.5021127e+02
   1.0310000e+06  -1.5000000e+04  -3.5021127e+02
   1.0310000e+06  -1.4000000e+04  -3.5021127e+02
   1.0310000e+06  -1.3000000e+04  -3.5021126e+02
   1.0310000e+06  -1.2000000e+04  -3.5021126e+02
   1.0310000e+06  -1.1000000e+04  -3.5021120e+02
   1.0310000e+06  -1.0000000e+04  -3.5021041e+02
   1.0310000e+06  -9.0000000e+03  -3.5020203e+02
   1.0310000e+06  -8.0000000e+03  -3.5013394e+02
   1.0310000e+06  -7.0000000e+03  -3.4970707e+02
   1.0310000e+06  -6.0000000e+03  -3.4765073e+02
   1.0310000e+06  -5.0000000e+03  -3.4008417e+02
   1.0310000e+06  -4.0000000e+03  -3.1901762e+02
   1.0310000e+06  -3.0000000e+03  -2.7538159e+02
   1.0310000e+06  -2.0000000e+03  -2.1041102e+02
   1.0310000e+06  -1.0000000e+03  -1.4680312e+02
   1.0310000e+06   0.0000000e+00  -1.1971964e+02
   1.0310000e+06   1.0000000e+03  -1.4680312e+02
   1.0310000e+06   2.0000000e+03  -2.1041102e+02
   1.0310000e+06   3.0000000e+03  -2.7538159e+02
   1.0310000e+06   4.0000000e+03  -3.1901762e+02
   1.0310000e+06   5.0000000e+03  -3.4008417e+02
   1.0310000e+06   6.0000000e+03  -3.4765073e+02
   1.0310000e+06   7.0000000e+03  -3.4970707e+02
   1.0310000e+06   8.0000000e+03  -3.5013394e+02
   1.0310000e+06   9.0000000e+03  -3.5020203e+02
   1.0310000e+06   1.0000000e+04  -3.5021041e+02
   1.0310000e+06   1.1000000e+04  -3.5021120e+02
   1.0310000e+06   1.2000000e+04  -3.5021126e+02
   1.0310000e+06   1.3000000e+04  -3.5021126e+02
   1.0310000e+06   1.4000000e+04  -3.5021127e+02
   1.0310000e+06   1.5000000e+04  -3.5021127e+02
   1.0310000e+06   1.6000000e+04  -3.5021127e+02
   1.0310000e+06   1.7000000e+04  -3.5021127e+02
   1.0310000e+06   1.8000000e+04  -3.5021127e+02
   1.0310000e+06   1.9000000e+04  -3.5021127e+02
   1.0310000e+06   2.0000000e+04  -3.5021127e+02
   1.0310000e+06   2.1000000e+04  -3.5021127e+02
   1.0310000e+06   2.2000000e+04  -3.5021127e+02
   1.0310000e+06   2.3000000e+04  -3.5021127e+02
   1.0310000e+06   2.4000000e+04  -3.5021127e+02
   1.0310000e+06   2.5000000e+04  -3.5021127e+02
   1.0320000e+06  -2.5000000e+04  -3.5123844e+02
   1.0320000e+06  -2.4000000e+04  -3.5123844e+02
   1.0320000e+06  -2.3000000e+04  -3.5123844e+02
   1.0320000e+06  -2.2000000e+04  -3.5123844e+02
   1.0320000e+06  -2.1000000e+04  -3.5123844e+02
   1.0320000e+06  -2.0000000e+04  -3.5123844e+02
   1.0320000e+06  -1.9000000e+04  -3.5123844e+02
   1.0320000e+06  -1.8000000e+04  -3.5123844e+02
   1.0320000e+06  -1.7000000e+04  -3.5123844e+02
   1.0320000e+06  -1.6000000e+04  -3.5123844e+02
   1.0320000e+06  -1.5000000e+04  -3.5123844e+02
   1.0320000e+06  -1.4000000e+04  -3.5123844e+02
   1.0320000e+06  -1.3000000e+04  -3.5123844e+02
   1.0320000e+06  -1.2000000e+04  -3.5123843e+02
   1.0320000e+06  -1.1000000e+04  -3.5123837e+02
   1.0320000e+06  -1.0000000e+04  -3.5123753e+02
   1.0320000e+06  -9.0000000e+03  -3.5122872e+02
   1.0320000e+06  -8.0000000e+03  -3.5115705e+02
   1.0320000e+06  -7.0000000e+03  -3.5070772e+02
   1.0320000e+06  -6.0000000e+03  -3.4854326e+02
   1.0320000e+06  -5.0000000e+03  -3.4057880e+02
   1.0320000e+06  -4.0000000e+03  -3.1840444e+02
   1.0320000e+06  -3.0000000e+03  -2.7247377e+02
   1.0320000e+06  -2.0000000e+03  -2.0408666e+02
   1.0320000e+06  -1.0000000e+03  -1.3713386e+02
   1.0320000e+06   0.0000000e+00  -1.0862617e+02
   1.0320000e+06   1.0000000e+03  -1.3713386e+02
   1.0320000e+06   2.0000000e+03  -2.0408666e+02
   1.0320000e+06   3.0000000e+03  -2.7247377e+02
   1.0320000e+06   4.0000000e+03  -3.1840444e+02
   1.0320000e+06   5.0000000e+03  -3.4057880e+02
   1.0320000e+06   6.0000000e+03  -3.4854326e+02
   1.0320000e+06   7.0000000e+03  -3.5070772e+02
   1.0320000e+06   8.0000000e+03  -3.5115705e+02
   1.0320000e+06   9.0000000e+03  -3.5122872e+02
   1.0320000e+06   1.0000000e+04  -3.5123753e+02
   1.0320000e+06   1.1000000e+04  -3.5123837e+02
   1.0320000e+06   1.2000000e+04  -3.5123843e+02
   1.0320000e+06   1.3000000e+04  -3.5123844e+02
   1.0320000e+06   1.4000000e+04  -3.5123844e+02
   1.0320000e+06   1.5000000e+04  -3.5123844e+02
   1.0320000e+06   1.6000000e+04  -3.5123844e+02
   1.0320000e+06   1.7000000e+04  -3.5123844e+02
   1.0320000e+06   1.8000000e+04  -3.5123844e+02
   1.0320000e+06   1.9000000e+04  -3.5123844e+02
   1.0320000e+06   2.0000000e+04  -3.5123844e+02
   1.0320000e+06   2.1000000e+04  -3.5123844e+02
   1.0320000e+06   2.2000000e+04  -3.5123844e+02
   1.0320000e+06   2.3000000e+04  -3.5123844e+02
   1.0320000e+06   2.4000000e+04  -3.5123844e+02
   1.0320000e+06   2.5000000e+04  -3.5123844e+02
   1.0330000e+06  -2.5000000e+04  -3.5226399e+02
   1.0330000e+06  -2.4000000e+04  -3.5226399e+02
   1.0330000e+06  -2.3000000e+04  -3.5226399e+02
   1.0330000e+06  -2.2000000e+04  -3.5226399e+02
   1.0330000e+06  -2.1000000e+04  -3.5226399e+02
   1.0330000e+06  -2.0000000e+04  -3.5226399e+02
   1.0330000e+06  -1.9000000e+04  -3.5226399e+02
   1.0330000e+06  -1.8000000e+04  -3.5226399e+02
   1.0330000e+06  -1.7000000e+04  -3.5226399e+02
   1.0330000e+06  -1.6000000e+04  -3.5226399e+02
   1.0330000e+06  -1.5000000e+04  -3.5226399e+02
   1.0330000e+06  -1.4000000e+04  -3.5226399e+02
   1.0330000e+06  -1.3000000e+04  -3.5226399e+02
   1.0330000e+06  -1.2000000e+04  -3.5226399e+02
   1.0330000e+06  -1.1000000e+04  -3.5226392e+02
   1.0330000e+06  -1.0000000e+04  -3.5226304e+02
   1.0330000e+06  -9.0000000e+03  -3.5225379e+02
   1.0330000e+06  -8.0000000e+03  -3.5217854e+02
   1.0330000e+06  -7.0000000e+03  -3.5170677e+02
   1.0330000e+06  -6.0000000e+03  -3.4943417e+02
   1.0330000e+06  -5.0000000e+03  -3.4107182e+02
   1.0330000e+06  -4.0000000e+03  -3.1778968e+02
   1.0330000e+06  -3.0000000e+03  -2.6956441e+02
   1.0330000e+06  -2.0000000e+03  -1.9776083e+02
   1.0330000e+06  -1.0000000e+03  -1.2746322e+02
   1.0330000e+06   0.0000000e+00  -9.7531346e+01
   1.0330000e+06   1.0000000e+03  -1.2746322e+02
   1.0330000e+06   2.0000000e+03  -1.9776083e+02
   1.0330000e+06   3.0000000e+03  -2.6956441e+02
   1.0330000e+06   4.0000000e+03  -3.1778968e+02
   1.0330000e+06   5.0000000e+03  -3.4107182e+02
   1.0330000e+06   6.0000000e+03  -3.4943417e+02
   1.0330000e+06   7.0000000e+03  -3.5170677e+02
   1.0330000e+06   8.0000000e+03  -3.5217854e+02
   1.0330000e+06   9.0000000e+03  -3.5225379e+02
   1.0330000e+06   1.0000000e+04  -3.5226304e+02
   1.0330000e+06   1.1000000e+04  -3.5226392e+02
   1.0330000e+06   1.2000000e+04  -3.5226399e+02
   1.0330000e+06   1.3000000e+04  -3.5226399e+02
   1.0330000e+06   1.4000000e+04  -3.5226399e+02
   1.0330000e+06   1.5000000e+04  -3.5226399e+02
   1.0330000e+06   1.6000000e+04  -3.5226399e+02
   1.0330000e+06   1.7000000e+04  -3.5226399e+02
   1.0330000e+06   1.8000000e+04  -3.5226399e+02
   1.0330000e+06   1.9000000e+04  -3.5226399e+02
   1.0330000e+06   2.0000000e+04  -3.5226399e+02
   1.0330000e+06   2.1000000e+04  -3.5226399e+02
   1.0330000e+06   2.2000000e+04  -3.5226399e+02
   1.0330000e+06   2.3000000e+04  -3.5226399e+02
   1.0330000e+06   2.4000000e+04  -3.5226399e+02
   1.0330000e+06   2.5000000e+04  -3.5226399e+02
   1.0340000e+06  -2.5000000e+04  -3.5328908e+02
   1.0340000e+06  -2.4000000e+04  -3.5328908e+02
   1.0340000e+06  -2.3000000e+04  -3.5328908e+02
   1.0340000e+06  -2.2000000e+04  -3.5328908e+02
   1.0340000e+06  -2.1000000e+04  -3.5328908e+02
   1.0340000e+06  -2.0000000e+04  -3.5328908e+02
   1.0340000e+06  -1.9000000e+04  -3.5328908e+02
   1.0340000e+06  -1.8000000e+04  -3.5328908e+02
   1.0340000e+06  -1.7000000e+04  -3.5328908e+02
   1.0340000e+06  -1.6000000e+04  -3.5328908e+02
   1.0340000e+06  -1.5000000e+04  -3.5328908e+02
   1.0340000e+06  -1.4000000e+04  -3.5328908e+02
   1.0340000e+06  -1.3000000e+04  -3.5328908e+02
   1.0340000e+06  -1.2000000e+04  -3.5328908e+02
   1.0340000e+06  -1.1000000e+04  -3.5328901e+02
   1.0340000e+06  -1.0000000e+04  -3.5328809e+02
   1.0340000e+06  -9.0000000e+03  -3.5327839e+02
   1.0340000e+06  -8.0000000e+03  -3.5319958e+02
   1.0340000e+06  -7.0000000e+03  -3.5270548e+02
   1.0340000e+06  -6.0000000e+03  -3.5032530e+02
   1.0340000e+06  -5.0000000e+03  -3.4156711e+02
   1.0340000e+06  -4.0000000e+03  -3.1718288e+02
   1.0340000e+06  -3.0000000e+03  -2.6667481e+02
   1.0340000e+06  -2.0000000e+03  -1.9147233e+02
   1.0340000e+06  -1.0000000e+03  -1.1784709e+02
   1.0340000e+06   0.0000000e+00  -8.6498355e+01
   1.0340000e+06   1.0000000e+03  -1.1784709e+02
   1.0340000e+06   2.0000000e+03  -1.9147233e+02
   1.0340000e+06   3.0000000e+03  -2.6667481e+02
   1.0340000e+06   4.0000000e+03  -3.1718288e+02
   1.0340000e+06   5.0000000e+03  -3.4156711e+02
   1.0340000e+06   6.0000000e+03  -3.5032530e+02
   1.0340000e+06   7.0000000e+03  -3.5270548e+02
   1.0340000e+06   8.0000000e+03  -3.5319958e+02
   1.0340000e+06   9.0000000e+03  -3.5327839e+02
   1.0340000e+06   1.0000000e+04  -3.5328809e+02
   1.0340000e+06   1.1000000e+04  -3.5328901e+02
   1.0340000e+06   1.2000000e+04  -3.5328908e+02
   1.0340000e+06   1.3000000e+04  -3.5328908e+02
   1.0340000e+06   1.4000000e+04  -3.5328908e+02
   1.0340000e+06   1.5000000e+04  -3.5328908e+02
   1.0340000e+06   1.6000000e+04  -3.5328908e+02
   1.0340000e+06   1.7000000e+04  -3.5328908e+02
   1.0340000e+06   1.8000000e+04  -3.5328908e+02
   1.0340000e+06   1.9000000e+04  -3.5328908e+02
   1.0340000e+06   2.0000000e+04  -3.5328908e+02
   1.0340000e+06   2.1000000e+04  -3.5328908e+02
   1.0340000e+06   2.2000000e+04  -3.5328908e+02
   1.0340000e+06   2.3000000e+04  -3.5328908e+02
   1.0340000e+06   2.4000000e+04  -3.5328908e+02
   1.0340000e+06   2.5000000e+04  -3.5328908e+02
   1.0350000e+06  -2.5000000e+04  -3.5431754e+02
   1.0350000e+06  -2.4000000e+04  -3.5431754e+02
   1.0350000e+06  -2.3000000e+04  -3.5431754e+02
   1.0350000e+06  -2.2000000e+04  -3.5431754e+02
   1.0350000e+06  -2.1000000e+04  -3.5431754e+02
   1.0350000e+06  -2.0000000e+04  -3.5431754e+02
   1.0350000e+06  -1.9000000e+04  -3.5431754e+02
   1.0350000e+06  -1.8000000e+04  -3.5431754e+02
   1.0350000e+06  -1.7000000e+04  -3.5431754e+02
   1.0350000e+06  -1.6000000e+04  -3.5431754e+02
   1.0350000e+06  -1.5000000e+04  -3.5431754e+02
   1.0350000e+06  -1.4000000e+04  -3.5431754e+02
   1.0350000e+06  -1.3000000e+04  -3.5431754e+02
   1.0350000e+06  -1.2000000e+04  -3.5431753e+02
   1.0350000e+06  -1.1000000e+04  -3.5431746e+02
   1.0350000e+06  -1.0000000e+04  -3.5431650e+02
   1.0350000e+06  -9.0000000e+03  -3.5430637e+02
   1.0350000e+06  -8.0000000e+03  -3.5422404e+02
   1.0350000e+06  -7.0000000e+03  -3.5370784e+02
   1.0350000e+06  -6.0000000e+03  -3.5122122e+02
   1.0350000e+06  -5.0000000e+03  -3.4207135e+02
   1.0350000e+06  -4.0000000e+03  -3.1659663e+02
   1.0350000e+06  -3.0000000e+03  -2.6382978e+02
   1.0350000e+06  -2.0000000e+03  -1.8526416e+02
   1.0350000e+06  -1.0000000e+03  -1.0834632e+02
   1.0350000e+06   0.0000000e+00  -7.5595629e+01
   1.0350000e+06   1.0000000e+03  -1.0834632e+02
   1.0350000e+06   2.0000000e+03  -1.8526416e+02
   1.0350000e+06   3.0000000e+03  -2.6382978e+02
   1.0350000e+06   4.0000000e+03  -3.1659663e+02
   1.0350000e+06   5.0000000e+03  -3.4207135e+02
   1.0350000e+06   6.0000000e+03  -3.5122122e+02
   1.0350000e+06   7.0000000e+03  -3.5370784e+02
   1.0350000e+06   8.0000000e+03  -3.5422404e+02
   1.0350000e+06   9.0000000e+03  -3.5430637e+02
   1.0350000e+06   1.0000000e+04  -3.5431650e+02
   1.0350000e+06   1.1000000e+04  -3.5431746e+02
   1.0350000e+06   1.2000000e+04  -3.5431753e+02
   1.0350000e+06   1.3000000e+04  -3.5431754e+02
   1.0350000e+06   1.4000000e+04  -3.5431754e+02
   1.0350000e+06   1.5000000e+04  -3.5431754e+02
   1.0350000e+06   1.6000000e+04  -3.5431754e+02
   1.0350000e+06   1.7000000e+04  -3.5431754e+02
   1.0350000e+06   1.8000000e+04  -3.5431754e+02
   1.0350000e+06   1.9000000e+04  -3.5431754e+02
   1.0350000e+06   2.0000000e+04  -3.5431754e+02
   1.0350000e+06   2.1000000e+04  -3.5431754e+02
   1.0350000e+06   2.2000000e+04  -3.5431754e+02
   1.0350000e+06   2.3000000e+04  -3.5431754e+02
   1.0350000e+06   2.4000000e+04  -3.5431754e+02
   1.0350000e+06   2.5000000e+04  -3.5431754e+02
   1.0360000e+06  -2.5000000e+04  -3.5534843e+02
   1.0360000e+06  -2.4000000e+04  -3.5534843e+02
   1.0360000e+06  -2.3000000e+04  -3.5534843e+02
   1.0360000e+06  -2.2000000e+04  -3.5534843e+02
   1.0360000e+06  -2.1000000e+04  -3.5534843e+02
   1.0360000e+06  -2.0000000e+04  -3.5534843e+02
   1.0360000e+06  -1.9000000e+04  -3.5534843e+02
   1.0360000e+06  -1.8000000e+04  -3.5534843e+02
   1.0360000e+06  -1.7000000e+04  -3.5534843e+02
   1.0360000e+06  -1.6000000e+04  -3.5534843e+02
   1.0360000e+06  -1.5000000e+04  -3.5534843e+02
   1.0360000e+06  -1.4000000e+04  -3.5534843e+02
   1.0360000e+06  -1.3000000e+04  -3.5534843e+02
   1.0360000e+06  -1.2000000e+04  -3.5534842e+02
   1.0360000e+06  -1.1000000e+04  -3.5534835e+02
   1.0360000e+06  -1.0000000e+04  -3.5534734e+02
   1.0360000e+06  -9.0000000e+03  -3.5533679e+02
   1.0360000e+06  -8.0000000e+03  -3.5525099e+02
   1.0360000e+06  -7.0000000e+03  -3.5471305e+02
   1.0360000e+06  -6.0000000e+03  -3.5212171e+02
   1.0360000e+06  -5.0000000e+03  -3.4258652e+02
   1.0360000e+06  -4.0000000e+03  -3.1603899e+02
   1.0360000e+06  -3.0000000e+03  -2.6104999e+02
   1.0360000e+06  -2.0000000e+03  -1.7917576e+02
   1.0360000e+06  -1.0000000e+03  -9.9018715e+01
   1.0360000e+06   0.0000000e+00  -6.4888811e+01
   1.0360000e+06   1.0000000e+03  -9.9018715e+01
   1.0360000e+06   2.0000000e+03  -1.7917576e+02
   1.0360000e+06   3.0000000e+03  -2.6104999e+02
   1.0360000e+06   4.0000000e+03  -3.1603899e+02
   1.0360000e+06   5.0000000e+03  -3.4258652e+02
   1.0360000e+06   6.0000000e+03  -3.5212171e+02
   1.0360000e+06   7.0000000e+03  -3.5471305e+02
   1.0360000e+06   8.0000000e+03  -3.5525099e+02
   1.0360000e+06   9.0000000e+03  -3.5533679e+02
   1.0360000e+06   1.0000000e+04  -3.5534734e+02
   1.0360000e+06   1.1000000e+04  -3.5534835e+02
   1.0360000e+06   1.2000000e+04  -3.5534842e+02
   1.0360000e+06   1.3000000e+04  -3.5534843e+02
   1.0360000e+06   1.4000000e+04  -3.5534843e+02
   1.0360000e+06   1.5000000e+04  -3.5534843e+02
   1.0360000e+06   1.6000000e+04  -3.5534843e+02
   1.0360000e+06   1.7000000e+04  -3.5534843e+02
   1.0360000e+06   1.8000000e+04  -3.5534843e+02
   1.0360000e+06   1.9000000e+04  -3.5534843e+02
   1.0360000e+06   2.0000000e+04  -3.5534843e+02
   1.0360000e+06   2.1000000e+04  -3.5534843e+02
   1.0360000e+06   2.2000000e+04  -3.5534843e+02
   1.0360000e+06   2.3000000e+04  -3.5534843e+02
   1.0360000e+06   2.4000000e+04  -3.5534843e+02
   1.0360000e+06   2.5000000e+04  -3.5534843e+02
   1.0370000e+06  -2.5000000e+04  -3.5638000e+02
   1.0370000e+06  -2.4000000e+04  -3.5638000e+02
   1.0370000e+06  -2.3000000e+04  -3.5638000e+02
   1.0370000e+06  -2.2000000e+04  -3.5638000e+02
   1.0370000e+06  -2.1000000e+04  -3.5638000e+02
   1.0370000e+06  -2.0000000e+04  -3.5638000e+02
   1.0370000e+06  -1.9000000e+04  -3.5638000e+02
   1.0370000e+06  -1.8000000e+04  -3.5638000e+02
   1.0370000e+06  -1.7000000e+04  -3.5638000e+02
   1.0370000e+06  -1.6000000e+04  -3.5638000e+02
   1.0370000e+06  -1.5000000e+04  -3.5638000e+02
   1.0370000e+06  -1.4000000e+04  -3.5638000e+02
   1.0370000e+06  -1.3000000e+04  -3.5638000e+02
   1.0370000e+06  -1.2000000e+04  -3.5638000e+02
   1.0370000e+06  -1.1000000e+04  -3.5637992e+02
   1.0370000e+06  -1.0000000e+04  -3.5637887e+02
   1.0370000e+06  -9.0000000e+03  -3.5636790e+02
   1.0370000e+06  -8.0000000e+03  -3.5627871e+02
   1.0370000e+06  -7.0000000e+03  -3.5571952e+02
   1.0370000e+06  -6.0000000e+03  -3.5302580e+02
   1.0370000e+06  -5.0000000e+03  -3.4311387e+02
   1.0370000e+06  -4.0000000e+03  -3.1551743e+02
   1.0370000e+06  -3.0000000e+03  -2.5835578e+02
   1.0370000e+06  -2.0000000e+03  -1.7324666e+02
   1.0370000e+06  -1.0000000e+03  -8.9922556e+01
   1.0370000e+06   0.0000000e+00  -5.4444159e+01
   1.0370000e+06   1.0000000e+03  -8.9922556e+01
   1.0370000e+06   2.0000000e+03  -1.7324666e+02
   1.0370000e+06   3.0000000e+03  -2.5835578e+02
   1.0370000e+06   4.0000000e+03  -3.1551743e+02
   1.0370000e+06   5.0000000e+03  -3.4311387e+02
   1.0370000e+06   6.0000000e+03  -3.5302580e+02
   1.0370000e+06   7.0000000e+03  -3.5571952e+02
   1.0370000e+06   8.0000000e+03  -3.5627871e+02
   1.0370000e+06   9.0000000e+03  -3.5636790e+02
   1.0370000e+06   1.0000000e+04  -3.5637887e+02
   1.0370000e+06   1.1000000e+04  -3.5637992e+02
   1.0370000e+06   1.2000000e+04  -3.5638000e+02
   1.0370000e+06   1.3000000e+04  -3.5638000e+02
   1.0370000e+06   1.4000000e+04  -3.5638000e+02
   1.0370000e+06   1.5000000e+04  -3.5638000e+02
   1.0370000e+06   1.6000000e+04  -3.5638000e+02
   1.0370000e+06   1.7000000e+04  -3.5638000e+02
   1.0370000e+06   1.8000000e+04  -3.5638000e+02
   1.0370000e+06   1.9000000e+04  -3.5638000e+02
   1.0370000e+06   2.0000000e+04  -3.5638000e+02
   1.0370000e+06   2.1000000e+04  -3.5638000e+02
   1.0370000e+06   2.2000000e+04  -3.5638000e+02
   1.0370000e+06   2.3000000e+04  -3.5638000e+02
   1.0370000e+06   2.4000000e+04  -3.5638000e+02
   1.0370000e+06   2.5000000e+04  -3.5638000e+02
   1.0380000e+06  -2.5000000e+04  -3.5740627e+02
   1.0380000e+06  -2.4000000e+04  -3.5740627e+02
   1.0380000e+06  -2.3000000e+04  -3.5740627e+02
   1.0380000e+06  -2.2000000e+04  -3.5740627e+02
   1.0380000e+06  -2.1000000e+04  -3.5740627e+02
   1.0380000e+06  -2.0000000e+04  -3.5740627e+02
   1.0380000e+06  -1.9000000e+04  -3.5740627e+02
   1.0380000e+06  -1.8000000e+04  -3.5740627e+02
   1.0380000e+06  -1.7000000e+04  -3.5740627e+02
   1.0380000e+06  -1.6000000e+04  -3.5740627e+02
   1.0380000e+06  -1.5000000e+04  -3.5740627e+02
   1.0380000e+06  -1.4000000e+04  -3.5740627e+02
   1.0380000e+06  -1.3000000e+04  -3.5740627e+02
   1.0380000e+06  -1.2000000e+04  -3.5740627e+02
   1.0380000e+06  -1.1000000e+04  -3.5740619e+02
   1.0380000e+06  -1.0000000e+04  -3.5740511e+02
   1.0380000e+06  -9.0000000e+03  -3.5739373e+02
   1.0380000e+06  -8.0000000e+03  -3.5730125e+02
   1.0380000e+06  -7.0000000e+03  -3.5672141e+02
   1.0380000e+06  -6.0000000e+03  -3.5392825e+02
   1.0380000e+06  -5.0000000e+03  -3.4365042e+02
   1.0380000e+06  -4.0000000e+03  -3.1503526e+02
   1.0380000e+06  -3.0000000e+03  -2.5576349e+02
   1.0380000e+06  -2.0000000e+03  -1.6751255e+02
   1.0380000e+06  -1.0000000e+03  -8.1112541e+01
   1.0380000e+06   0.0000000e+00  -4.4324458e+01
   1.0380000e+06   1.0000000e+03  -8.1112541e+01
   1.0380000e+06   2.0000000e+03  -1.6751255e+02
   1.0380000e+06   3.0000000e+03  -2.5576349e+02
   1.0380000e+06   4.0000000e+03  -3.1503526e+02
   1.0380000e+06   5.0000000e+03  -3.4365042e+02
   1.0380000e+06   6.0000000e+03  -3.5392825e+02
   1.0380000e+06   7.0000000e+03  -3.5672141e+02
   1.0380000e+06   8.0000000e+03  -3.5730125e+02
   1.0380000e+06   9.0000000e+03  -3.5739373e+02
   1.0380000e+06   1.0000000e+04  -3.5740511e+02
   1.0380000e+06   1.1000000e+04  -3.5740619e+02
   1.0380000e+06   1.2000000e+04  -3.5740627e+02
   1.0380000e+06   1.3000000e+04  -3.5740627e+02
   1.0380000e+06   1.4000000e+04  -3.5740627e+02
   1.0380000e+06   1.5000000e+04  -3.5740627e+02
   1.0380000e+06   1.6000000e+04  -3.5740627e+02
   1.0380000e+06   1.7000000e+04  -3.5740627e+02
   1.0380000e+06   1.8000000e+04  -3.5740627e+02
   1.0380000e+06   1.9000000e+04  -3.5740627e+02
   1.0380000e+06   2.0000000e+04  -3.5740627e+02
   1.0380000e+06   2.1000000e+04  -3.5740627e+02
   1.0380000e+06   2.2000000e+04  -3.5740627e+02
   1.0380000e+06   2.3000000e+04  -3.5740627e+02
   1.0380000e+06   2.4000000e+04  -3.5740627e+02
   1.0380000e+06   2.5000000e+04  -3.5740627e+02
   1.0390000e+06  -2.5000000e+04  -3.5843661e+02
   1.0390000e+06  -2.4000000e+04  -3.5843661e+02
   1.0390000e+06  -2.3000000e+04  -3.5843661e+02
   1.0390000e+06  -2.2000000e+04  -3.5843661e+02
   1.0390000e+06  -2.1000000e+04  -3.5843661e+02
   1.0390000e+06  -2.0000000e+04  -3.5843661e+02
   1.0390000e+06  -1.9000000e+04  -3.5843661e+02
   1.0390000e+06  -1.8000000e+04  -3.5843661e+02
   1.0390000e+06  -1.7000000e+04  -3.5843661e+02
   1.0390000e+06  -1.6000000e+04  -3.5843661e+02
   1.0390000e+06  -1.5000000e+04  -3.5843661e+02
   1.0390000e+06  -1.4000000e+04  -3.5843661e+02
   1.0390000e+06  -1.3000000e+04  -3.5843661e+02
   1.0390000e+06  -1.2000000e+04  -3.5843660e+02
   1.0390000e+06  -1.1000000e+04  -3.5843652e+02
   1.0390000e+06  -1.0000000e+04  -3.5843540e+02
   1.0390000e+06  -9.0000000e+03  -3.5842363e+02
   1.0390000e+06  -8.0000000e+03  -3.5832798e+02
   1.0390000e+06  -7.0000000e+03  -3.5772824e+02
   1.0390000e+06  -6.0000000e+03  -3.5483920e+02
   1.0390000e+06  -5.0000000e+03  -3.4420857e+02
   1.0390000e+06  -4.0000000e+03  -3.1461117e+02
   1.0390000e+06  -3.0000000e+03  -2.5330484e+02
   1.0390000e+06  -2.0000000e+03  -1.6202460e+02
   1.0390000e+06  -1.0000000e+03  -7.2658820e+01
   1.0390000e+06   0.0000000e+00  -3.4607949e+01
   1.0390000e+06   1.0000000e+03  -7.2658820e+01
   1.0390000e+06   2.0000000e+03  -1.6202460e+02
   1.0390000e+06   3.0000000e+03  -2.5330484e+02
   1.0390000e+06   4.0000000e+03  -3.1461117e+02
   1.0390000e+06   5.0000000e+03  -3.4420857e+02
   1.0390000e+06   6.0000000e+03  -3.5483920e+02
   1.0390000e+06   7.0000000e+03  -3.5772824e+02
   1.0390000e+06   8.0000000e+03  -3.5832798e+02
   1.0390000e+06   9.0000000e+03  -3.5842363e+02
   1.0390000e+06   1.0000000e+04  -3.5843540e+02
   1.0390000e+06   1.1000000e+04  -3.5843652e+02
   1.0390000e+06   1.2000000e+04  -3.5843660e+02
   1.0390000e+06   1.3000000e+04  -3.5843661e+02
   1.0390000e+06   1.4000000e+04  -3.5843661e+02
   1.0390000e+06   1.5000000e+04  -3.5843661e+02
   1.0390000e+06   1.6000000e+04  -3.5843661e+02
   1.0390000e+06   1.7000000e+04  -3.5843661e+02
   1.0390000e+06   1.8000000e+04  -3.5843661e+02
   1.0390000e+06   1.9000000e+04  -3.5843661e+02
   1.0390000e+06   2.0000000e+04  -3.5843661e+02
   1.0390000e+06   2.1000000e+04  -3.5843661e+02
   1.0390000e+06   2.2000000e+04  -3.5843661e+02
   1.0390000e+06   2.3000000e+04  -3.5843661e+02
   1.0390000e+06   2.4000000e+04  -3.5843661e+02
   1.0390000e+06   2.5000000e+04  -3.5843661e+02
   1.0400000e+06  -2.5000000e+04  -3.5949369e+02
   1.0400000e+06  -2.4000000e+04  -3.5949369e+02
   1.0400000e+06  -2.3000000e+04  -3.5949369e+02
   1.0400000e+06  -2.2000000e+04  -3.5949369e+02
   1.0400000e+06  -2.1000000e+04  -3.5949369e+02
   1.0400000e+06  -2.0000000e+04  -3.5949369e+02
   1.0400000e+06  -1.9000000e+04  -3.5949369e+02
   1.0400000e+06  -1.8000000e+04  -3.5949369e+02
   1.0400000e+06  -1.7000000e+04  -3.5949369e+02
   1.0400000e+06  -1.6000000e+04  -3.5949369e+02
   1.0400000e+06  -1.5000000e+04  -3.5949369e+02
   1.0400000e+06  -1.4000000e+04  -3.5949369e+02
   1.0400000e+06  -1.3000000e+04  -3.5949368e+02
   1.0400000e+06  -1.2000000e+04  -3.5949368e+02
   1.0400000e+06  -1.1000000e+04  -3.5949359e+02
   1.0400000e+06  -1.0000000e+04  -3.5949244e+02
   1.0400000e+06  -9.0000000e+03  -3.5948030e+02
   1.0400000e+06  -8.0000000e+03  -3.5938160e+02
   1.0400000e+06  -7.0000000e+03  -3.5876283e+02
   1.0400000e+06  -6.0000000e+03  -3.5578208e+02
   1.0400000e+06  -5.0000000e+03  -3.4481400e+02
   1.0400000e+06  -4.0000000e+03  -3.1427707e+02
   1.0400000e+06  -3.0000000e+03  -2.5102467e+02
   1.0400000e+06  -2.0000000e+03  -1.5684689e+02
   1.0400000e+06  -1.0000000e+03  -6.4644335e+01
   1.0400000e+06   0.0000000e+00  -2.5385601e+01
   1.0400000e+06   1.0000000e+03  -6.4644335e+01
   1.0400000e+06   2.0000000e+03  -1.5684689e+02
   1.0400000e+06   3.0000000e+03  -2.5102467e+02
   1.0400000e+06   4.0000000e+03  -3.1427707e+02
   1.0400000e+06   5.0000000e+03  -3.4481400e+02
   1.0400000e+06   6.0000000e+03  -3.5578208e+02
   1.0400000e+06   7.0000000e+03  -3.5876283e+02
   1.0400000e+06   8.0000000e+03  -3.5938160e+02
   1.0400000e+06   9.0000000e+03  -3.5948030e+02
   1.0400000e+06   1.0000000e+04  -3.5949244e+02
   1.0400000e+06   1.1000000e+04  -3.5949359e+02
   1.0400000e+06   1.2000000e+04  -3.5949368e+02
   1.0400000e+06   1.3000000e+04  -3.5949368e+02
   1.0400000e+06   1.4000000e+04  -3.5949369e+02
   1.0400000e+06   1.5000000e+04  -3.5949369e+02
   1.0400000e+06   1.6000000e+04  -3.5949369e+02
   1.0400000e+06   1.7000000e+04  -3.5949369e+02
   1.0400000e+06   1.8000000e+04  -3.5949369e+02
   1.0400000e+06   1.9000000e+04  -3.5949369e+02
   1.0400000e+06   2.0000000e+04  -3.5949369e+02
   1.0400000e+06   2.1000000e+04  -3.5949369e+02
   1.0400000e+06   2.2000000e+04  -3.5949369e+02
   1.0400000e+06   2.3000000e+04  -3.5949369e+02
   1.0400000e+06   2.4000000e+04  -3.5949369e+02
   1.0400000e+06   2.5000000e+04  -3.5949369e+02
   1.0410000e+06  -2.5000000e+04  -3.6057994e+02
   1.0410000e+06  -2.4000000e+04  -3.6057994e+02
   1.0410000e+06  -2.3000000e+04  -3.6057994e+02
   1.0410000e+06  -2.2000000e+04  -3.6057994e+02
   1.0410000e+06  -2.1000000e+04  -3.6057994e+02
   1.0410000e+06  -2.0000000e+04  -3.6057994e+02
   1.0410000e+06  -1.9000000e+04  -3.6057994e+02
   1.0410000e+06  -1.8000000e+04  -3.6057994e+02
   1.0410000e+06  -1.7000000e+04  -3.6057994e+02
   1.0410000e+06  -1.6000000e+04  -3.6057994e+02
   1.0410000e+06  -1.5000000e+04  -3.6057994e+02
   1.0410000e+06  -1.4000000e+04  -3.6057994e+02
   1.0410000e+06  -1.3000000e+04  -3.6057994e+02
   1.0410000e+06  -1.2000000e+04  -3.6057994e+02
   1.0410000e+06  -1.1000000e+04  -3.6057985e+02
   1.0410000e+06  -1.0000000e+04  -3.6057866e+02
   1.0410000e+06  -9.0000000e+03  -3.6056616e+02
   1.0410000e+06  -8.0000000e+03  -3.6046459e+02
   1.0410000e+06  -7.0000000e+03  -3.5982776e+02
   1.0410000e+06  -6.0000000e+03  -3.5676008e+02
   1.0410000e+06  -5.0000000e+03  -3.4547209e+02
   1.0410000e+06  -4.0000000e+03  -3.1404448e+02
   1.0410000e+06  -3.0000000e+03  -2.4894718e+02
   1.0410000e+06  -2.0000000e+03  -1.5202249e+02
   1.0410000e+06  -1.0000000e+03  -5.7130640e+01
   1.0410000e+06   0.0000000e+00  -1.6726835e+01
   1.0410000e+06   1.0000000e+03  -5.7130640e+01
   1.0410000e+06   2.0000000e+03  -1.5202249e+02
   1.0410000e+06   3.0000000e+03  -2.4894718e+02
   1.0410000e+06   4.0000000e+03  -3.1404448e+02
   1.0410000e+06   5.0000000e+03  -3.4547209e+02
   1.0410000e+06   6.0000000e+03  -3.5676008e+02
   1.0410000e+06   7.0000000e+03  -3.5982776e+02
   1.0410000e+06   8.0000000e+03  -3.6046459e+02
   1.0410000e+06   9.0000000e+03  -3.6056616e+02
   1.0410000e+06   1.0000000e+04  -3.6057866e+02
   1.0410000e+06   1.1000000e+04  -3.6057985e+02
   1.0410000e+06   1.2000000e+04  -3.6057994e+02
   1.0410000e+06   1.3000000e+04  -3.6057994e+02
   1.0410000e+06   1.4000000e+04  -3.6057994e+02
   1.0410000e+06   1.5000000e+04  -3.6057994e+02
   1.0410000e+06   1.6000000e+04  -3.6057994e+02
   1.0410000e+06   1.7000000e+04  -3.6057994e+02
   1.0410000e+06   1.8000000e+04  -3.6057994e+02
   1.0410000e+06   1.9000000e+04  -3.6057994e+02
   1.0410000e+06   2.0000000e+04  -3.6057994e+02
   1.0410000e+06   2.1000000e+04  -3.6057994e+02
   1.0410000e+06   2.2000000e+04  -3.6057994e+02
   1.0410000e+06   2.3000000e+04  -3.6057994e+02
   1.0410000e+06   2.4000000e+04  -3.6057994e+02
   1.0410000e+06   2.5000000e+04  -3.6057994e+02
   1.0420000e+06  -2.5000000e+04  -3.6165134e+02
   1.0420000e+06  -2.4000000e+04  -3.6165134e+02
   1.0420000e+06  -2.3000000e+04  -3.6165134e+02
   1.0420000e+06  -2.2000000e+04  -3.6165134e+02
   1.0420000e+06  -2.1000000e+04  -3.6165134e+02
   1.0420000e+06  -2.0000000e+04  -3.6165134e+02
   1.0420000e+06  -1.9000000e+04  -3.6165134e+02
   1.0420000e+06  -1.8000000e+04  -3.6165134e+02
   1.0420000e+06  -1.7000000e+04  -3.6165134e+02
   1.0420000e+06  -1.6000000e+04  -3.6165134e+02
   1.0420000e+06  -1.5000000e+04  -3.6165134e+02
   1.0420000e+06  -1.4000000e+04  -3.6165134e+02
   1.0420000e+06  -1.3000000e+04  -3.6165134e+02
   1.0420000e+06  -1.2000000e+04  -3.6165134e+02
   1.0420000e+06  -1.1000000e+04  -3.6165125e+02
   1.0420000e+06  -1.0000000e+04  -3.6165003e+02
   1.0420000e+06  -9.0000000e+03  -3.6163720e+02
   1.0420000e+06  -8.0000000e+03  -3.6153293e+02
   1.0420000e+06  -7.0000000e+03  -3.6087916e+02
   1.0420000e+06  -6.0000000e+03  -3.5772988e+02
   1.0420000e+06  -5.0000000e+03  -3.4614166e+02
   1.0420000e+06  -4.0000000e+03  -3.1387816e+02
   1.0420000e+06  -3.0000000e+03  -2.4704943e+02
   1.0420000e+06  -2.0000000e+03  -1.4754677e+02
   1.0420000e+06  -1.0000000e+03  -5.0131031e+01
   1.0420000e+06   0.0000000e+00  -8.6525835e+00
   1.0420000e+06   1.0000000e+03  -5.0131031e+01
   1.0420000e+06   2.0000000e+03  -1.4754677e+02
   1.0420000e+06   3.0000000e+03  -2.4704943e+02
   1.0420000e+06   4.0000000e+03  -3.1387816e+02
   1.0420000e+06   5.0000000e+03  -3.4614166e+02
   1.0420000e+06   6.0000000e+03  -3.5772988e+02
   1.0420000e+06   7.0000000e+03  -3.6087916e+02
   1.0420000e+06   8.0000000e+03  -3.6153293e+02
   1.0420000e+06   9.0000000e+03  -3.6163720e+02
   1.0420000e+06   1.0000000e+04  -3.6165003e+02
   1.0420000e+06   1.1000000e+04  -3.6165125e+02
   1.0420000e+06   1.2000000e+04  -3.6165134e+02
   1.0420000e+06   1.3000000e+04  -3.6165134e+02
   1.0420000e+06   1.4000000e+04  -3.6165134e+02
   1.0420000e+06   1.5000000e+04  -3.6165134e+02
   1.0420000e+06   1.6000000e+04  -3.6165134e+02
   1.0420000e+06   1.7000000e+04  -3.6165134e+02
   1.0420000e+06   1.8000000e+04  -3.6165134e+02
   1.0420000e+06   1.9000000e+04  -3.6165134e+02
   1.0420000e+06   2.0000000e+04  -3.6165134e+02
   1.0420000e+06   2.1000000e+04  -3.6165134e+02
   1.0420000e+06   2.2000000e+04  -3.6165134e+02
   1.0420000e+06   2.3000000e+04  -3.6165134e+02
   1.0420000e+06   2.4000000e+04  -3.6165134e+02
   1.0420000e+06   2.5000000e+04  -3.6165134e+02
   1.0430000e+06  -2.5000000e+04  -3.6269820e+02
   1.0430000e+06  -2.4000000e+04  -3.6269820e+02
   1.0430000e+06  -2.3000000e+04  -3.6269820e+02
   1.0430000e+06  -2.2000000e+04  -3.6269820e+02
   1.0430000e+06  -2.1000000e+04  -3.6269820e+02
   1.0430000e+06  -2.0000000e+04  -3.6269820e+02
   1.0430000e+06  -1.9000000e+04  -3.6269820e+02
   1.0430000e+06  -1.8000000e+04  -3.6269820e+02
   1.0430000e+06  -1.7000000e+04  -3.6269820e+02
   1.0430000e+06  -1.6000000e+04  -3.6269820e+02
   1.0430000e+06  -1.5000000e+04  -3.6269820e+02
   1.0430000e+06  -1.4000000e+04  -3.6269820e+02
   1.0430000e+06  -1.3000000e+04  -3.6269820e+02
   1.0430000e+06  -1.2000000e+04  -3.6269819e+02
   1.0430000e+06  -1.1000000e+04  -3.6269810e+02
   1.0430000e+06  -1.0000000e+04  -3.6269685e+02
   1.0430000e+06  -9.0000000e+03  -3.6268372e+02
   1.0430000e+06  -8.0000000e+03  -3.6257693e+02
   1.0430000e+06  -7.0000000e+03  -3.6190746e+02
   1.0430000e+06  -6.0000000e+03  -3.5868249e+02
   1.0430000e+06  -5.0000000e+03  -3.4681575e+02
   1.0430000e+06  -4.0000000e+03  -3.1377682e+02
   1.0430000e+06  -3.0000000e+03  -2.4534191e+02
   1.0430000e+06  -2.0000000e+03  -1.4344778e+02
   1.0430000e+06  -1.0000000e+03  -4.3690720e+01
   1.0430000e+06   0.0000000e+00  -1.2153673e+00
   1.0430000e+06   1.0000000e+03  -4.3690720e+01
   1.0430000e+06   2.0000000e+03  -1.4344778e+02
   1.0430000e+06   3.0000000e+03  -2.4534191e+02
   1.0430000e+06   4.0000000e+03  -3.1377682e+02
   1.0430000e+06   5.0000000e+03  -3.4681575e+02
   1.0430000e+06   6.0000000e+03  -3.5868249e+02
   1.0430000e+06   7.0000000e+03  -3.6190746e+02
   1.0430000e+06   8.0000000e+03  -3.6257693e+02
   1.0430000e+06   9.0000000e+03  -3.6268372e+02
   1.0430000e+06   1.0000000e+04  -3.6269685e+02
   1.0430000e+06   1.1000000e+04  -3.6269810e+02
   1.0430000e+06   1.2000000e+04  -3.6269819e+02
   1.0430000e+06   1.3000000e+04  -3.6269820e+02
   1.0430000e+06   1.4000000e+04  -3.6269820e+02
   1.0430000e+06   1.5000000e+04  -3.6269820e+02
   1.0430000e+06   1.6000000e+04  -3.6269820e+02
   1.0430000e+06   1.7000000e+04  -3.6269820e+02
   1.0430000e+06   1.8000000e+04  -3.6269820e+02
   1.0430000e+06   1.9000000e+04  -3.6269820e+02
   1.0430000e+06   2.0000000e+04  -3.6269820e+02
   1.0430000e+06   2.1000000e+04  -3.6269820e+02
   1.0430000e+06   2.2000000e+04  -3.6269820e+02
   1.0430000e+06   2.3000000e+04  -3.6269820e+02
   1.0430000e+06   2.4000000e+04  -3.6269820e+02
   1.0430000e+06   2.5000000e+04  -3.6269820e+02
   1.0440000e+06  -2.5000000e+04  -3.6372799e+02
   1.0440000e+06  -2.4000000e+04  -3.6372799e+02
   1.0440000e+06  -2.3000000e+04  -3.6372799e+02
   1.0440000e+06  -2.2000000e+04  -3.6372799e+02
   1.0440000e+06  -2.1000000e+04  -3.6372799e+02
   1.0440000e+06  -2.0000000e+04  -3.6372799e+02
   1.0440000e+06  -1.9000000e+04  -3.6372799e+02
   1.0440000e+06  -1.8000000e+04  -3.6372799e+02
   1.0440000e+06  -1.7000000e+04  -3.6372799e+02
   1.0440000e+06  -1.6000000e+04  -3.6372799e+02
   1.0440000e+06  -1.5000000e+04  -3.6372799e+02
   1.0440000e+06  -1.4000000e+04  -3.6372799e+02
   1.0440000e+06  -1.3000000e+04  -3.6372799e+02
   1.0440000e+06  -1.2000000e+04  -3.6372799e+02
   1.0440000e+06  -1.1000000e+04  -3.6372789e+02
   1.0440000e+06  -1.0000000e+04  -3.6372662e+02
   1.0440000e+06  -9.0000000e+03  -3.6371320e+02
   1.0440000e+06  -8.0000000e+03  -3.6360412e+02
   1.0440000e+06  -7.0000000e+03  -3.6292027e+02
   1.0440000e+06  -6.0000000e+03  -3.5962603e+02
   1.0440000e+06  -5.0000000e+03  -3.4750443e+02
   1.0440000e+06  -4.0000000e+03  -3.1375591e+02
   1.0440000e+06  -3.0000000e+03  -2.4385119e+02
   1.0440000e+06  -2.0000000e+03  -1.3976864e+02
   1.0440000e+06  -1.0000000e+03  -3.7869065e+01
   1.0440000e+06   0.0000000e+00   5.5185473e+00
   1.0440000e+06   1.0000000e+03  -3.7869065e+01
   1.0440000e+06   2.0000000e+03  -1.3976864e+02
   1.0440000e+06   3.0000000e+03  -2.4385119e+02
   1.0440000e+06   4.0000000e+03  -3.1375591e+02
   1.0440000e+06   5.0000000e+03  -3.4750443e+02
   1.0440000e+06   6.0000000e+03  -3.5962603e+02
   1.0440000e+06   7.0000000e+03  -3.6292027e+02
   1.0440000e+06   8.0000000e+03  -3.6360412e+02
   1.0440000e+06   9.0000000e+03  -3.6371320e+02
   1.0440000e+06   1.0000000e+04  -3.6372662e+02
   1.0440000e+06   1.1000000e+04  -3.6372789e+02
   1.0440000e+06   1.2000000e+04  -3.6372799e+02
   1.0440000e+06   1.3000000e+04  -3.6372799e+02
   1.0440000e+06   1.4000000e+04  -3.6372799e+02
   1.0440000e+06   1.5000000e+04  -3.6372799e+02
   1.0440000e+06   1.6000000e+04  -3.6372799e+02
   1.0440000e+06   1.7000000e+04  -3.6372799e+02
   1.0440000e+06   1.8000000e+04  -3.6372799e+02
   1.0440000e+06   1.9000000e+04  -3.6372799e+02
   1.0440000e+06   2.0000000e+04  -3.6372799e+02
   1.0440000e+06   2.1000000e+04  -3.6372799e+02
   1.0440000e+06   2.2000000e+04  -3.6372799e+02
   1.0440000e+06   2.3000000e+04  -3.6372799e+02
   1.0440000e+06   2.4000000e+04  -3.6372799e+02
   1.0440000e+06   2.5000000e+04  -3.6372799e+02
   1.0450000e+06  -2.5000000e+04  -3.6473084e+02
   1.0450000e+06  -2.4000000e+04  -3.6473084e+02
   1.0450000e+06  -2.3000000e+04  -3.6473084e+02
   1.0450000e+06  -2.2000000e+04  -3.6473084e+02
   1.0450000e+06  -2.1000000e+04  -3.6473084e+02
   1.0450000e+06  -2.0000000e+04  -3.6473084e+02
   1.0450000e+06  -1.9000000e+04  -3.6473084e+02
   1.0450000e+06  -1.8000000e+04  -3.6473084e+02
   1.0450000e+06  -1.7000000e+04  -3.6473084e+02
   1.0450000e+06  -1.6000000e+04  -3.6473084e+02
   1.0450000e+06  -1.5000000e+04  -3.6473084e+02
   1.0450000e+06  -1.4000000e+04  -3.6473084e+02
   1.0450000e+06  -1.3000000e+04  -3.6473084e+02
   1.0450000e+06  -1.2000000e+04  -3.6473084e+02
   1.0450000e+06  -1.1000000e+04  -3.6473074e+02
   1.0450000e+06  -1.0000000e+04  -3.6472944e+02
   1.0450000e+06  -9.0000000e+03  -3.6471577e+02
   1.0450000e+06  -8.0000000e+03  -3.6460463e+02
   1.0450000e+06  -7.0000000e+03  -3.6390783e+02
   1.0450000e+06  -6.0000000e+03  -3.6055125e+02
