9.520000000000000000e+05 -4.000000000000000000e+03 -2.681815903840267197e+02
9.520000000000000000e+05 -3.000000000000000000e+03 -2.681815735213525045e+02
9.520000000000000000e+05 -2.000000000000000000e+03 -2.681813790830726134e+02
9.520000000000000000e+05 -1.000000000000000000e+03 -2.681806415707399651e+02
9.520000000000000000e+05 0.000000000000000000e+00 -2.681800257147586422e+02
9.520000000000000000e+05 1.000000000000000000e+03 -2.681806415707399651e+02
9.520000000000000000e+05 2.000000000000000000e+03 -2.681813790830726134e+02
9.520000000000000000e+05 3.000000000000000000e+03 -2.681815735213525045e+02
9.520000000000000000e+05 4.000000000000000000e+03 -2.681815903840267197e+02
9.520000000000000000e+05 5.000000000000000000e+03 -2.681815909032579839e+02
9.520000000000000000e+05 6.000000000000000000e+03 -2.681815909090670971e+02
9.520000000000000000e+05 7.000000000000000000e+03 -2.681815909090908576e+02
9.520000000000000000e+05 8.000000000000000000e+03 -2.681815909090909145e+02
9.520000000000000000e+05 9.000000000000000000e+03 -2.681815909090909145e+02
9.520000000000000000e+05 1.000000000000000000e+04 -2.681815909090909145e+02
9.520000000000000000e+05 1.100000000000000000e+04 -2.681815909090909145e+02
9.520000000000000000e+05 1.200000000000000000e+04 -2.681815909090909145e+02
9.520000000000000000e+05 1.300000000000000000e+04 -2.681815909090909145e+02
9.520000000000000000e+05 1.400000000000000000e+04 -2.681815909090909145e+02
9.520000000000000000e+05 1.500000000000000000e+04 -2.681815909090909145e+02
9.520000000000000000e+05 1.600000000000000000e+04 -2.681815909090909145e+02
9.520000000000000000e+05 1.700000000000000000e+04 -2.681815909090909145e+02
9.520000000000000000e+05 1.800000000000000000e+04 -2.681815909090909145e+02
9.520000000000000000e+05 1.900000000000000000e+04 -2.681815909090909145e+02
9.520000000000000000e+05 2.000000000000000000e+04 -2.681815909090909145e+02
9.520000000000000000e+05 2.100000000000000000e+04 -2.681815909090909145e+02
9.520000000000000000e+05 2.200000000000000000e+04 -2.681815909090909145e+02
9.520000000000000000e+05 2.300000000000000000e+04 -2.681815909090909145e+02
9.520000000000000000e+05 2.400000000000000000e+04 -2.681815909090909145e+02
9.520000000000000000e+05 2.500000000000000000e+04 -2.681815909090909145e+02
9.530000000000000000e+05 -2.500000000000000000e+04 -2.692183041958041940e+02
9.530000000000000000e+05 -2.400000000000000000e+04 -2.692183041958041940e+02
9.530000000000000000e+05 -2.300000000000000000e+04 -2.692183041958041940e+02
9.530000000000000000e+05 -2.200000000000000000e+04 -2.692183041958041940e+02
9.530000000000000000e+05 -2.100000000000000000e+04 -2.692183041958041940e+02
9.530000000000000000e+05 -2.000000000000000000e+04 -2.692183041958041940e+02
9.530000000000000000e+05 -1.900000000000000000e+04 -2.692183041958041940e+02
9.530000000000000000e+05 -1.800000000000000000e+04 -2.692183041958041940e+02
9.530000000000000000e+05 -1.700000000000000000e+04 -2.692183041958041940e+02
9.530000000000000000e+05 -1.600000000000000000e+04 -2.692183041958041940e+02
9.530000000000000000e+05 -1.500000000000000000e+04 -2.692183041958041940e+02
9.530000000000000000e+05 -1.400000000000000000e+04 -2.692183041958041940e+02
9.530000000000000000e+05 -1.300000000000000000e+04 -2.692183041958041940e+02
9.530000000000000000e+05 -1.200000000000000000e+04 -2.692183041958041940e+02
9.530000000000000000e+05 -1.100000000000000000e+04 -2.692183041958041940e+02
9.530000000000000000e+05 -1.000000000000000000e+04 -2.692183041958041940e+02
9.530000000000000000e+05 -9.000000000000000000e+03 -2.692183041958041940e+02
9.530000000000000000e+05 -8.000000000000000000e+03 -2.692183041958041940e+02
9.530000000000000000e+05 -7.000000000000000000e+03 -2.692183041958041372e+02
9.530000000000000000e+05 -6.000000000000000000e+03 -2.692183041957736123e+02
9.530000000000000000e+05 -5.000000000000000000e+03 -2.692183041883238843e+02
9.530000000000000000e+05 -4.000000000000000000e+03 -2.692183035224506398e+02
9.530000000000000000e+05 -3.000000000000000000e+03 -2.692182818973965368e+02
9.530000000000000000e+05 -2.000000000000000000e+03 -2.692180325455879029e+02
9.530000000000000000e+05 -1.000000000000000000e+03 -2.692170867439988342e+02
9.530000000000000000e+05 0.000000000000000000e+00 -2.692162969571166400e+02
9.530000000000000000e+05 1.000000000000000000e+03 -2.692170867439988342e+02
9.530000000000000000e+05 2.000000000000000000e+03 -2.692180325455879029e+02
9.530000000000000000e+05 3.000000000000000000e+03 -2.692182818973965368e+02
9.530000000000000000e+05 4.000000000000000000e+03 -2.692183035224506398e+02
9.530000000000000000e+05 5.000000000000000000e+03 -2.692183041883238843e+02
9.530000000000000000e+05 6.000000000000000000e+03 -2.692183041957736123e+02
9.530000000000000000e+05 7.000000000000000000e+03 -2.692183041958041372e+02
9.530000000000000000e+05 8.000000000000000000e+03 -2.692183041958041940e+02
9.530000000000000000e+05 9.000000000000000000e+03 -2.692183041958041940e+02
9.530000000000000000e+05 1.000000000000000000e+04 -2.692183041958041940e+02
9.530000000000000000e+05 1.100000000000000000e+04 -2.692183041958041940e+02
9.530000000000000000e+05 1.200000000000000000e+04 -2.692183041958041940e+02
9.530000000000000000e+05 1.300000000000000000e+04 -2.692183041958041940e+02
9.530000000000000000e+05 1.400000000000000000e+04 -2.692183041958041940e+02
9.530000000000000000e+05 1.500000000000000000e+04 -2.692183041958041940e+02
9.530000000000000000e+05 1.600000000000000000e+04 -2.692183041958041940e+02
9.530000000000000000e+05 1.700000000000000000e+04 -2.692183041958041940e+02
9.530000000000000000e+05 1.800000000000000000e+04 -2.692183041958041940e+02
9.530000000000000000e+05 1.900000000000000000e+04 -2.692183041958041940e+02
9.530000000000000000e+05 2.000000000000000000e+04 -2.692183041958041940e+02
9.530000000000000000e+05 2.100000000000000000e+04 -2.692183041958041940e+02
9.530000000000000000e+05 2.200000000000000000e+04 -2.692183041958041940e+02
9.530000000000000000e+05 2.300000000000000000e+04 -2.692183041958041940e+02
9.530000000000000000e+05 2.400000000000000000e+04 -2.692183041958041940e+02
9.530000000000000000e+05 2.500000000000000000e+04 -2.692183041958041940e+02
9.540000000000000000e+05 -2.500000000000000000e+04 -2.702550174825174736e+02
9.540000000000000000e+05 -2.400000000000000000e+04 -2.702550174825174736e+02
9.540000000000000000e+05 -2.300000000000000000e+04 -2.702550174825174736e+02
9.540000000000000000e+05 -2.200000000000000000e+04 -2.702550174825174736e+02
9.540000000000000000e+05 -2.100000000000000000e+04 -2.702550174825174736e+02
9.540000000000000000e+05 -2.000000000000000000e+04 -2.702550174825174736e+02
9.540000000000000000e+05 -1.900000000000000000e+04 -2.702550174825174736e+02
9.540000000000000000e+05 -1.800000000000000000e+04 -2.702550174825174736e+02
9.540000000000000000e+05 -1.700000000000000000e+04 -2.702550174825174736e+02
9.540000000000000000e+05 -1.600000000000000000e+04 -2.702550174825174736e+02
9.540000000000000000e+05 -1.500000000000000000e+04 -2.702550174825174736e+02
9.540000000000000000e+05 -1.400000000000000000e+04 -2.702550174825174736e+02
9.540000000000000000e+05 -1.300000000000000000e+04 -2.702550174825174736e+02
9.540000000000000000e+05 -1.200000000000000000e+04 -2.702550174825174736e+02
9.540000000000000000e+05 -1.100000000000000000e+04 -2.702550174825174736e+02
9.540000000000000000e+05 -1.000000000000000000e+04 -2.702550174825174736e+02
9.540000000000000000e+05 -9.000000000000000000e+03 -2.702550174825174736e+02
9.540000000000000000e+05 -8.000000000000000000e+03 -2.702550174825174736e+02
9.540000000000000000e+05 -7.000000000000000000e+03 -2.702550174825174167e+02
9.540000000000000000e+05 -6.000000000000000000e+03 -2.702550174824783653e+02
9.540000000000000000e+05 -5.000000000000000000e+03 -2.702550174729485661e+02
9.540000000000000000e+05 -4.000000000000000000e+03 -2.702550166211505598e+02
9.540000000000000000e+05 -3.000000000000000000e+03 -2.702549889579632350e+02
9.540000000000000000e+05 -2.000000000000000000e+03 -2.702546699823075187e+02
9.540000000000000000e+05 -1.000000000000000000e+03 -2.702534600946244723e+02
9.540000000000000000e+05 0.000000000000000000e+00 -2.702524497839715991e+02
9.540000000000000000e+05 1.000000000000000000e+03 -2.702534600946244723e+02
9.540000000000000000e+05 2.000000000000000000e+03 -2.702546699823075187e+02
9.540000000000000000e+05 3.000000000000000000e+03 -2.702549889579632350e+02
9.540000000000000000e+05 4.000000000000000000e+03 -2.702550166211505598e+02
9.540000000000000000e+05 5.000000000000000000e+03 -2.702550174729485661e+02
9.540000000000000000e+05 6.000000000000000000e+03 -2.702550174824783653e+02
9.540000000000000000e+05 7.000000000000000000e+03 -2.702550174825174167e+02
9.540000000000000000e+05 8.000000000000000000e+03 -2.702550174825174736e+02
9.540000000000000000e+05 9.000000000000000000e+03 -2.702550174825174736e+02
9.540000000000000000e+05 1.000000000000000000e+04 -2.702550174825174736e+02
9.540000000000000000e+05 1.100000000000000000e+04 -2.702550174825174736e+02
9.540000000000000000e+05 1.200000000000000000e+04 -2.702550174825174736e+02
9.540000000000000000e+05 1.300000000000000000e+04 -2.702550174825174736e+02
9.540000000000000000e+05 1.400000000000000000e+04 -2.702550174825174736e+02
9.540000000000000000e+05 1.500000000000000000e+04 -2.702550174825174736e+02
9.540000000000000000e+05 1.600000000000000000e+04 -2.702550174825174736e+02
9.540000000000000000e+05 1.700000000000000000e+04 -2.702550174825174736e+02
9.540000000000000000e+05 1.800000000000000000e+04 -2.702550174825174736e+02
9.540000000000000000e+05 1.900000000000000000e+04 -2.702550174825174736e+02
9.540000000000000000e+05 2.000000000000000000e+04 -2.702550174825174736e+02
9.540000000000000000e+05 2.100000000000000000e+04 -2.702550174825174736e+02
9.540000000000000000e+05 2.200000000000000000e+04 -2.702550174825174736e+02
9.540000000000000000e+05 2.300000000000000000e+04 -2.702550174825174736e+02
9.540000000000000000e+05 2.400000000000000000e+04 -2.702550174825174736e+02
9.540000000000000000e+05 2.500000000000000000e+04 -2.702550174825174736e+02
9.550000000000000000e+05 -2.500000000000000000e+04 -2.712917307692307531e+02
9.550000000000000000e+05 -2.400000000000000000e+04 -2.712917307692307531e+02
9.550000000000000000e+05 -2.300000000000000000e+04 -2.712917307692307531e+02
9.550000000000000000e+05 -2.200000000000000000e+04 -2.712917307692307531e+02
9.550000000000000000e+05 -2.100000000000000000e+04 -2.712917307692307531e+02
9.550000000000000000e+05 -2.000000000000000000e+04 -2.712917307692307531e+02
9.550000000000000000e+05 -1.900000000000000000e+04 -2.712917307692307531e+02
9.550000000000000000e+05 -1.800000000000000000e+04 -2.712917307692307531e+02
9.550000000000000000e+05 -1.700000000000000000e+04 -2.712917307692307531e+02
9.550000000000000000e+05 -1.600000000000000000e+04 -2.712917307692307531e+02
9.550000000000000000e+05 -1.500000000000000000e+04 -2.712917307692307531e+02
9.550000000000000000e+05 -1.400000000000000000e+04 -2.712917307692307531e+02
9.550000000000000000e+05 -1.300000000000000000e+04 -2.712917307692307531e+02
9.550000000000000000e+05 -1.200000000000000000e+04 -2.712917307692307531e+02
9.550000000000000000e+05 -1.100000000000000000e+04 -2.712917307692307531e+02
9.550000000000000000e+05 -1.000000000000000000e+04 -2.712917307692307531e+02
9.550000000000000000e+05 -9.000000000000000000e+03 -2.712917307692307531e+02
9.550000000000000000e+05 -8.000000000000000000e+03 -2.712917307692307531e+02
9.550000000000000000e+05 -7.000000000000000000e+03 -2.712917307692306963e+02
9.550000000000000000e+05 -6.000000000000000000e+03 -2.712917307691808446e+02
9.550000000000000000e+05 -5.000000000000000000e+03 -2.712917307570205594e+02
9.550000000000000000e+05 -4.000000000000000000e+03 -2.712917296701048144e+02
9.550000000000000000e+05 -3.000000000000000000e+03 -2.712916943711783233e+02
9.550000000000000000e+05 -2.000000000000000000e+03 -2.712912873501765603e+02
9.550000000000000000e+05 -1.000000000000000000e+03 -2.712897435029018993e+02
9.550000000000000000e+05 0.000000000000000000e+00 -2.712884543209638082e+02
9.550000000000000000e+05 1.000000000000000000e+03 -2.712897435029018993e+02
9.550000000000000000e+05 2.000000000000000000e+03 -2.712912873501765603e+02
9.550000000000000000e+05 3.000000000000000000e+03 -2.712916943711783233e+02
9.550000000000000000e+05 4.000000000000000000e+03 -2.712917296701048144e+02
9.550000000000000000e+05 5.000000000000000000e+03 -2.712917307570205594e+02
9.550000000000000000e+05 6.000000000000000000e+03 -2.712917307691808446e+02
9.550000000000000000e+05 7.000000000000000000e+03 -2.712917307692306963e+02
9.550000000000000000e+05 8.000000000000000000e+03 -2.712917307692307531e+02
9.550000000000000000e+05 9.000000000000000000e+03 -2.712917307692307531e+02
9.550000000000000000e+05 1.000000000000000000e+04 -2.712917307692307531e+02
9.550000000000000000e+05 1.100000000000000000e+04 -2.712917307692307531e+02
9.550000000000000000e+05 1.200000000000000000e+04 -2.712917307692307531e+02
9.550000000000000000e+05 1.300000000000000000e+04 -2.712917307692307531e+02
9.550000000000000000e+05 1.400000000000000000e+04 -2.712917307692307531e+02
9.550000000000000000e+05 1.500000000000000000e+04 -2.712917307692307531e+02
9.550000000000000000e+05 1.600000000000000000e+04 -2.712917307692307531e+02
9.550000000000000000e+05 1.700000000000000000e+04 -2.712917307692307531e+02
9.550000000000000000e+05 1.800000000000000000e+04 -2.712917307692307531e+02
9.550000000000000000e+05 1.900000000000000000e+04 -2.712917307692307531e+02
9.550000000000000000e+05 2.000000000000000000e+04 -2.712917307692307531e+02
9.550000000000000000e+05 2.100000000000000000e+04 -2.712917307692307531e+02
9.550000000000000000e+05 2.200000000000000000e+04 -2.712917307692307531e+02
9.550000000000000000e+05 2.300000000000000000e+04 -2.712917307692307531e+02
9.550000000000000000e+05 2.400000000000000000e+04 -2.712917307692307531e+02
9.550000000000000000e+05 2.500000000000000000e+04 -2.712917307692307531e+02
9.560000000000000000e+05 -2.500000000000000000e+04 -2.723287818181817670e+02
9.560000000000000000e+05 -2.400000000000000000e+04 -2.723287818181817670e+02
9.560000000000000000e+05 -2.300000000000000000e+04 -2.723287818181817670e+02
9.560000000000000000e+05 -2.200000000000000000e+04 -2.723287818181817670e+02
9.560000000000000000e+05 -2.100000000000000000e+04 -2.723287818181817670e+02
9.560000000000000000e+05 -2.000000000000000000e+04 -2.723287818181817670e+02
9.560000000000000000e+05 -1.900000000000000000e+04 -2.723287818181817670e+02
9.560000000000000000e+05 -1.800000000000000000e+04 -2.723287818181817670e+02
9.560000000000000000e+05 -1.700000000000000000e+04 -2.723287818181817670e+02
9.560000000000000000e+05 -1.600000000000000000e+04 -2.723287818181817670e+02
9.560000000000000000e+05 -1.500000000000000000e+04 -2.723287818181817670e+02
9.560000000000000000e+05 -1.400000000000000000e+04 -2.723287818181817670e+02
9.560000000000000000e+05 -1.300000000000000000e+04 -2.723287818181817670e+02
9.560000000000000000e+05 -1.200000000000000000e+04 -2.723287818181817670e+02
9.560000000000000000e+05 -1.100000000000000000e+04 -2.723287818181817670e+02
9.560000000000000000e+05 -1.000000000000000000e+04 -2.723287818181817670e+02
9.560000000000000000e+05 -9.000000000000000000e+03 -2.723287818181817670e+02
9.560000000000000000e+05 -8.000000000000000000e+03 -2.723287818181817670e+02
9.560000000000000000e+05 -7.000000000000000000e+03 -2.723287818181816533e+02
9.560000000000000000e+05 -6.000000000000000000e+03 -2.723287818181182729e+02
9.560000000000000000e+05 -5.000000000000000000e+03 -2.723287818026401510e+02
9.560000000000000000e+05 -4.000000000000000000e+03 -2.723287804191711530e+02
9.560000000000000000e+05 -3.000000000000000000e+03 -2.723287354893136012e+02
9.560000000000000000e+05 -2.000000000000000000e+03 -2.723282174170251437e+02
9.560000000000000000e+05 -1.000000000000000000e+03 -2.723262523476869319e+02
9.560000000000000000e+05 0.000000000000000000e+00 -2.723246114263733375e+02
9.560000000000000000e+05 1.000000000000000000e+03 -2.723262523476869319e+02
9.560000000000000000e+05 2.000000000000000000e+03 -2.723282174170251437e+02
9.560000000000000000e+05 3.000000000000000000e+03 -2.723287354893136012e+02
9.560000000000000000e+05 4.000000000000000000e+03 -2.723287804191711530e+02
9.560000000000000000e+05 5.000000000000000000e+03 -2.723287818026401510e+02
9.560000000000000000e+05 6.000000000000000000e+03 -2.723287818181182729e+02
9.560000000000000000e+05 7.000000000000000000e+03 -2.723287818181816533e+02
9.560000000000000000e+05 8.000000000000000000e+03 -2.723287818181817670e+02
9.560000000000000000e+05 9.000000000000000000e+03 -2.723287818181817670e+02
9.560000000000000000e+05 1.000000000000000000e+04 -2.723287818181817670e+02
9.560000000000000000e+05 1.100000000000000000e+04 -2.723287818181817670e+02
9.560000000000000000e+05 1.200000000000000000e+04 -2.723287818181817670e+02
9.560000000000000000e+05 1.300000000000000000e+04 -2.723287818181817670e+02
9.560000000000000000e+05 1.400000000000000000e+04 -2.723287818181817670e+02
9.560000000000000000e+05 1.500000000000000000e+04 -2.723287818181817670e+02
9.560000000000000000e+05 1.600000000000000000e+04 -2.723287818181817670e+02
9.560000000000000000e+05 1.700000000000000000e+04 -2.723287818181817670e+02
9.560000000000000000e+05 1.800000000000000000e+04 -2.723287818181817670e+02
9.560000000000000000e+05 1.900000000000000000e+04 -2.723287818181817670e+02
9.560000000000000000e+05 2.000000000000000000e+04 -2.723287818181817670e+02
9.560000000000000000e+05 2.100000000000000000e+04 -2.723287818181817670e+02
9.560000000000000000e+05 2.200000000000000000e+04 -2.723287818181817670e+02
9.560000000000000000e+05 2.300000000000000000e+04 -2.723287818181817670e+02
9.560000000000000000e+05 2.400000000000000000e+04 -2.723287818181817670e+02
9.560000000000000000e+05 2.500000000000000000e+04 -2.723287818181817670e+02
9.570000000000000000e+05 -2.500000000000000000e+04 -2.733669636363636073e+02
9.570000000000000000e+05 -2.400000000000000000e+04 -2.733669636363636073e+02
9.570000000000000000e+05 -2.300000000000000000e+04 -2.733669636363636073e+02
9.570000000000000000e+05 -2.200000000000000000e+04 -2.733669636363636073e+02
9.570000000000000000e+05 -2.100000000000000000e+04 -2.733669636363636073e+02
9.570000000000000000e+05 -2.000000000000000000e+04 -2.733669636363636073e+02
9.570000000000000000e+05 -1.900000000000000000e+04 -2.733669636363636073e+02
9.570000000000000000e+05 -1.800000000000000000e+04 -2.733669636363636073e+02
9.570000000000000000e+05 -1.700000000000000000e+04 -2.733669636363636073e+02
9.570000000000000000e+05 -1.600000000000000000e+04 -2.733669636363636073e+02
9.570000000000000000e+05 -1.500000000000000000e+04 -2.733669636363636073e+02
9.570000000000000000e+05 -1.400000000000000000e+04 -2.733669636363636073e+02
9.570000000000000000e+05 -1.300000000000000000e+04 -2.733669636363636073e+02
9.570000000000000000e+05 -1.200000000000000000e+04 -2.733669636363636073e+02
9.570000000000000000e+05 -1.100000000000000000e+04 -2.733669636363636073e+02
9.570000000000000000e+05 -1.000000000000000000e+04 -2.733669636363636073e+02
9.570000000000000000e+05 -9.000000000000000000e+03 -2.733669636363636073e+02
9.570000000000000000e+05 -8.000000000000000000e+03 -2.733669636363636073e+02
9.570000000000000000e+05 -7.000000000000000000e+03 -2.733669636363634936e+02
9.570000000000000000e+05 -6.000000000000000000e+03 -2.733669636362829465e+02
9.570000000000000000e+05 -5.000000000000000000e+03 -2.733669636166310397e+02
9.570000000000000000e+05 -4.000000000000000000e+03 -2.733669618600943068e+02
9.570000000000000000e+05 -3.000000000000000000e+03 -2.733669048144027443e+02
9.570000000000000000e+05 -2.000000000000000000e+03 -2.733662470381806315e+02
9.570000000000000000e+05 -1.000000000000000000e+03 -2.733637520661191616e+02
9.570000000000000000e+05 0.000000000000000000e+00 -2.733616686521892234e+02
9.570000000000000000e+05 1.000000000000000000e+03 -2.733637520661191616e+02
9.570000000000000000e+05 2.000000000000000000e+03 -2.733662470381806315e+02
9.570000000000000000e+05 3.000000000000000000e+03 -2.733669048144027443e+02
9.570000000000000000e+05 4.000000000000000000e+03 -2.733669618600943068e+02
9.570000000000000000e+05 5.000000000000000000e+03 -2.733669636166310397e+02
9.570000000000000000e+05 6.000000000000000000e+03 -2.733669636362829465e+02
9.570000000000000000e+05 7.000000000000000000e+03 -2.733669636363634936e+02
9.570000000000000000e+05 8.000000000000000000e+03 -2.733669636363636073e+02
9.570000000000000000e+05 9.000000000000000000e+03 -2.733669636363636073e+02
9.570000000000000000e+05 1.000000000000000000e+04 -2.733669636363636073e+02
9.570000000000000000e+05 1.100000000000000000e+04 -2.733669636363636073e+02
9.570000000000000000e+05 1.200000000000000000e+04 -2.733669636363636073e+02
9.570000000000000000e+05 1.300000000000000000e+04 -2.733669636363636073e+02
9.570000000000000000e+05 1.400000000000000000e+04 -2.733669636363636073e+02
9.570000000000000000e+05 1.500000000000000000e+04 -2.733669636363636073e+02
9.570000000000000000e+05 1.600000000000000000e+04 -2.733669636363636073e+02
9.570000000000000000e+05 1.700000000000000000e+04 -2.733669636363636073e+02
9.570000000000000000e+05 1.800000000000000000e+04 -2.733669636363636073e+02
9.570000000000000000e+05 1.900000000000000000e+04 -2.733669636363636073e+02
9.570000000000000000e+05 2.000000000000000000e+04 -2.733669636363636073e+02
9.570000000000000000e+05 2.100000000000000000e+04 -2.733669636363636073e+02
9.570000000000000000e+05 2.200000000000000000e+04 -2.733669636363636073e+02
9.570000000000000000e+05 2.300000000000000000e+04 -2.733669636363636073e+02
9.570000000000000000e+05 2.400000000000000000e+04 -2.733669636363636073e+02
9.570000000000000000e+05 2.500000000000000000e+04 -2.733669636363636073e+02
9.580000000000000000e+05 -2.500000000000000000e+04 -2.744051454545454476e+02
9.580000000000000000e+05 -2.400000000000000000e+04 -2.744051454545454476e+02
9.580000000000000000e+05 -2.300000000000000000e+04 -2.744051454545454476e+02
9.580000000000000000e+05 -2.200000000000000000e+04 -2.744051454545454476e+02
9.580000000000000000e+05 -2.100000000000000000e+04 -2.744051454545454476e+02
9.580000000000000000e+05 -2.000000000000000000e+04 -2.744051454545454476e+02
9.580000000000000000e+05 -1.900000000000000000e+04 -2.744051454545454476e+02
9.580000000000000000e+05 -1.800000000000000000e+04 -2.744051454545454476e+02
9.580000000000000000e+05 -1.700000000000000000e+04 -2.744051454545454476e+02
9.580000000000000000e+05 -1.600000000000000000e+04 -2.744051454545454476e+02
9.580000000000000000e+05 -1.500000000000000000e+04 -2.744051454545454476e+02
9.580000000000000000e+05 -1.400000000000000000e+04 -2.744051454545454476e+02
9.580000000000000000e+05 -1.300000000000000000e+04 -2.744051454545454476e+02
9.580000000000000000e+05 -1.200000000000000000e+04 -2.744051454545454476e+02
9.580000000000000000e+05 -1.100000000000000000e+04 -2.744051454545454476e+02
9.580000000000000000e+05 -1.000000000000000000e+04 -2.744051454545454476e+02
9.580000000000000000e+05 -9.000000000000000000e+03 -2.744051454545454476e+02
9.580000000000000000e+05 -8.000000000000000000e+03 -2.744051454545454476e+02
9.580000000000000000e+05 -7.000000000000000000e+03 -2.744051454545452771e+02
9.580000000000000000e+05 -6.000000000000000000e+03 -2.744051454544433000e+02
9.580000000000000000e+05 -5.000000000000000000e+03 -2.744051454295543522e+02
9.580000000000000000e+05 -4.000000000000000000e+03 -2.744051432049165555e+02
9.580000000000000000e+05 -3.000000000000000000e+03 -2.744050709570676645e+02
9.580000000000000000e+05 -2.000000000000000000e+03 -2.744042378894725402e+02
9.580000000000000000e+05 -1.000000000000000000e+03 -2.744010780300775991e+02
9.580000000000000000e+05 0.000000000000000000e+00 -2.743984394053083520e+02
9.580000000000000000e+05 1.000000000000000000e+03 -2.744010780300775991e+02
9.580000000000000000e+05 2.000000000000000000e+03 -2.744042378894725402e+02
9.580000000000000000e+05 3.000000000000000000e+03 -2.744050709570676645e+02
9.580000000000000000e+05 4.000000000000000000e+03 -2.744051432049165555e+02
9.580000000000000000e+05 5.000000000000000000e+03 -2.744051454295543522e+02
9.580000000000000000e+05 6.000000000000000000e+03 -2.744051454544433000e+02
9.580000000000000000e+05 7.000000000000000000e+03 -2.744051454545452771e+02
9.580000000000000000e+05 8.000000000000000000e+03 -2.744051454545454476e+02
9.580000000000000000e+05 9.000000000000000000e+03 -2.744051454545454476e+02
9.580000000000000000e+05 1.000000000000000000e+04 -2.744051454545454476e+02
9.580000000000000000e+05 1.100000000000000000e+04 -2.744051454545454476e+02
9.580000000000000000e+05 1.200000000000000000e+04 -2.744051454545454476e+02
9.580000000000000000e+05 1.300000000000000000e+04 -2.744051454545454476e+02
9.580000000000000000e+05 1.400000000000000000e+04 -2.744051454545454476e+02
9.580000000000000000e+05 1.500000000000000000e+04 -2.744051454545454476e+02
9.580000000000000000e+05 1.600000000000000000e+04 -2.744051454545454476e+02
9.580000000000000000e+05 1.700000000000000000e+04 -2.744051454545454476e+02
9.580000000000000000e+05 1.800000000000000000e+04 -2.744051454545454476e+02
9.580000000000000000e+05 1.900000000000000000e+04 -2.744051454545454476e+02
9.580000000000000000e+05 2.000000000000000000e+04 -2.744051454545454476e+02
9.580000000000000000e+05 2.100000000000000000e+04 -2.744051454545454476e+02
9.580000000000000000e+05 2.200000000000000000e+04 -2.744051454545454476e+02
9.580000000000000000e+05 2.300000000000000000e+04 -2.744051454545454476e+02
9.580000000000000000e+05 2.400000000000000000e+04 -2.744051454545454476e+02
9.580000000000000000e+05 2.500000000000000000e+04 -2.744051454545454476e+02
9.590000000000000000e+05 -2.500000000000000000e+04 -2.754433272727272879e+02
9.590000000000000000e+05 -2.400000000000000000e+04 -2.754433272727272879e+02
9.590000000000000000e+05 -2.300000000000000000e+04 -2.754433272727272879e+02
9.590000000000000000e+05 -2.200000000000000000e+04 -2.754433272727272879e+02
9.590000000000000000e+05 -2.100000000000000000e+04 -2.754433272727272879e+02
9.590000000000000000e+05 -2.000000000000000000e+04 -2.754433272727272879e+02
9.590000000000000000e+05 -1.900000000000000000e+04 -2.754433272727272879e+02
9.590000000000000000e+05 -1.800000000000000000e+04 -2.754433272727272879e+02
9.590000000000000000e+05 -1.700000000000000000e+04 -2.754433272727272879e+02
9.590000000000000000e+05 -1.600000000000000000e+04 -2.754433272727272879e+02
9.590000000000000000e+05 -1.500000000000000000e+04 -2.754433272727272879e+02
9.590000000000000000e+05 -1.400000000000000000e+04 -2.754433272727272879e+02
9.590000000000000000e+05 -1.300000000000000000e+04 -2.754433272727272879e+02
9.590000000000000000e+05 -1.200000000000000000e+04 -2.754433272727272879e+02
9.590000000000000000e+05 -1.100000000000000000e+04 -2.754433272727272879e+02
9.590000000000000000e+05 -1.000000000000000000e+04 -2.754433272727272879e+02
9.590000000000000000e+05 -9.000000000000000000e+03 -2.754433272727272879e+02
9.590000000000000000e+05 -8.000000000000000000e+03 -2.754433272727272879e+02
9.590000000000000000e+05 -7.000000000000000000e+03 -2.754433272727271174e+02
9.590000000000000000e+05 -6.000000000000000000e+03 -2.754433272725982533e+02
9.590000000000000000e+05 -5.000000000000000000e+03 -2.754433272411553162e+02
9.590000000000000000e+05 -4.000000000000000000e+03 -2.754433244307066957e+02
9.590000000000000000e+05 -3.000000000000000000e+03 -2.754432331579314450e+02
9.590000000000000000e+05 -2.000000000000000000e+03 -2.754421807197956582e+02
9.590000000000000000e+05 -1.000000000000000000e+03 -2.754381887789850794e+02
9.590000000000000000e+05 0.000000000000000000e+00 -2.754348553287951518e+02
9.590000000000000000e+05 1.000000000000000000e+03 -2.754381887789850794e+02
9.590000000000000000e+05 2.000000000000000000e+03 -2.754421807197956582e+02
9.590000000000000000e+05 3.000000000000000000e+03 -2.754432331579314450e+02
9.590000000000000000e+05 4.000000000000000000e+03 -2.754433244307066957e+02
9.590000000000000000e+05 5.000000000000000000e+03 -2.754433272411553162e+02
9.590000000000000000e+05 6.000000000000000000e+03 -2.754433272725982533e+02
9.590000000000000000e+05 7.000000000000000000e+03 -2.754433272727271174e+02
9.590000000000000000e+05 8.000000000000000000e+03 -2.754433272727272879e+02
9.590000000000000000e+05 9.000000000000000000e+03 -2.754433272727272879e+02
9.590000000000000000e+05 1.000000000000000000e+04 -2.754433272727272879e+02
9.590000000000000000e+05 1.100000000000000000e+04 -2.754433272727272879e+02
9.590000000000000000e+05 1.200000000000000000e+04 -2.754433272727272879e+02
9.590000000000000000e+05 1.300000000000000000e+04 -2.754433272727272879e+02
9.590000000000000000e+05 1.400000000000000000e+04 -2.754433272727272879e+02
9.590000000000000000e+05 1.500000000000000000e+04 -2.754433272727272879e+02
9.590000000000000000e+05 1.600000000000000000e+04 -2.754433272727272879e+02
9.590000000000000000e+05 1.700000000000000000e+04 -2.754433272727272879e+02
9.590000000000000000e+05 1.800000000000000000e+04 -2.754433272727272879e+02
9.590000000000000000e+05 1.900000000000000000e+04 -2.754433272727272879e+02
9.590000000000000000e+05 2.000000000000000000e+04 -2.754433272727272879e+02
9.590000000000000000e+05 2.100000000000000000e+04 -2.754433272727272879e+02
9.590000000000000000e+05 2.200000000000000000e+04 -2.754433272727272879e+02
9.590000000000000000e+05 2.300000000000000000e+04 -2.754433272727272879e+02
9.590000000000000000e+05 2.400000000000000000e+04 -2.754433272727272879e+02
9.590000000000000000e+05 2.500000000000000000e+04 -2.754433272727272879e+02
9.600000000000000000e+05 -2.500000000000000000e+04 -2.764815090909090713e+02
9.600000000000000000e+05 -2.400000000000000000e+04 -2.764815090909090713e+02
9.600000000000000000e+05 -2.300000000000000000e+04 -2.764815090909090713e+02
9.600000000000000000e+05 -2.200000000000000000e+04 -2.764815090909090713e+02
9.600000000000000000e+05 -2.100000000000000000e+04 -2.764815090909090713e+02
9.600000000000000000e+05 -2.000000000000000000e+04 -2.764815090909090713e+02
9.600000000000000000e+05 -1.900000000000000000e+04 -2.764815090909090713e+02
9.600000000000000000e+05 -1.800000000000000000e+04 -2.764815090909090713e+02
9.600000000000000000e+05 -1.700000000000000000e+04 -2.764815090909090713e+02
9.600000000000000000e+05 -1.600000000000000000e+04 -2.764815090909090713e+02
9.600000000000000000e+05 -1.500000000000000000e+04 -2.764815090909090713e+02
9.600000000000000000e+05 -1.400000000000000000e+04 -2.764815090909090713e+02
9.600000000000000000e+05 -1.300000000000000000e+04 -2.764815090909090713e+02
9.600000000000000000e+05 -1.200000000000000000e+04 -2.764815090909090713e+02
9.600000000000000000e+05 -1.100000000000000000e+04 -2.764815090909090713e+02
9.600000000000000000e+05 -1.000000000000000000e+04 -2.764815090909090713e+02
9.600000000000000000e+05 -9.000000000000000000e+03 -2.764815090909090713e+02
9.600000000000000000e+05 -8.000000000000000000e+03 -2.764815090909090713e+02
9.600000000000000000e+05 -7.000000000000000000e+03 -2.764815090909088440e+02
9.600000000000000000e+05 -6.000000000000000000e+03 -2.764815090907464992e+02
9.600000000000000000e+05 -5.000000000000000000e+03 -2.764815090511228277e+02
9.600000000000000000e+05 -4.000000000000000000e+03 -2.764815055094679224e+02
9.600000000000000000e+05 -3.000000000000000000e+03 -2.764813904898674650e+02
9.600000000000000000e+05 -2.000000000000000000e+03 -2.764800642344357016e+02
9.600000000000000000e+05 -1.000000000000000000e+03 -2.764750336934440611e+02
9.600000000000000000e+05 0.000000000000000000e+00 -2.764708329653722672e+02
9.600000000000000000e+05 1.000000000000000000e+03 -2.764750336934440611e+02
9.600000000000000000e+05 2.000000000000000000e+03 -2.764800642344357016e+02
9.600000000000000000e+05 3.000000000000000000e+03 -2.764813904898674650e+02
9.600000000000000000e+05 4.000000000000000000e+03 -2.764815055094679224e+02
9.600000000000000000e+05 5.000000000000000000e+03 -2.764815090511228277e+02
9.600000000000000000e+05 6.000000000000000000e+03 -2.764815090907464992e+02
9.600000000000000000e+05 7.000000000000000000e+03 -2.764815090909088440e+02
9.600000000000000000e+05 8.000000000000000000e+03 -2.764815090909090713e+02
9.600000000000000000e+05 9.000000000000000000e+03 -2.764815090909090713e+02
9.600000000000000000e+05 1.000000000000000000e+04 -2.764815090909090713e+02
9.600000000000000000e+05 1.100000000000000000e+04 -2.764815090909090713e+02
9.600000000000000000e+05 1.200000000000000000e+04 -2.764815090909090713e+02
9.600000000000000000e+05 1.300000000000000000e+04 -2.764815090909090713e+02
9.600000000000000000e+05 1.400000000000000000e+04 -2.764815090909090713e+02
9.600000000000000000e+05 1.500000000000000000e+04 -2.764815090909090713e+02
9.600000000000000000e+05 1.600000000000000000e+04 -2.764815090909090713e+02
9.600000000000000000e+05 1.700000000000000000e+04 -2.764815090909090713e+02
9.600000000000000000e+05 1.800000000000000000e+04 -2.764815090909090713e+02
9.600000000000000000e+05 1.900000000000000000e+04 -2.764815090909090713e+02
9.600000000000000000e+05 2.000000000000000000e+04 -2.764815090909090713e+02
9.600000000000000000e+05 2.100000000000000000e+04 -2.764815090909090713e+02
9.600000000000000000e+05 2.200000000000000000e+04 -2.764815090909090713e+02
9.600000000000000000e+05 2.300000000000000000e+04 -2.764815090909090713e+02
9.600000000000000000e+05 2.400000000000000000e+04 -2.764815090909090713e+02
9.600000000000000000e+05 2.500000000000000000e+04 -2.764815090909090713e+02
9.610000000000000000e+05 -2.500000000000000000e+04 -2.775196909090909116e+02
9.610000000000000000e+05 -2.400000000000000000e+04 -2.775196909090909116e+02
9.610000000000000000e+05 -2.300000000000000000e+04 -2.775196909090909116e+02
9.610000000000000000e+05 -2.200000000000000000e+04 -2.775196909090909116e+02
9.610000000000000000e+05 -2.100000000000000000e+04 -2.775196909090909116e+02
9.610000000000000000e+05 -2.000000000000000000e+04 -2.775196909090909116e+02
9.610000000000000000e+05 -1.900000000000000000e+04 -2.775196909090909116e+02
9.610000000000000000e+05 -1.800000000000000000e+04 -2.775196909090909116e+02
9.610000000000000000e+05 -1.700000000000000000e+04 -2.775196909090909116e+02
9.610000000000000000e+05 -1.600000000000000000e+04 -2.775196909090909116e+02
9.610000000000000000e+05 -1.500000000000000000e+04 -2.775196909090909116e+02
9.610000000000000000e+05 -1.400000000000000000e+04 -2.775196909090909116e+02
9.610000000000000000e+05 -1.300000000000000000e+04 -2.775196909090909116e+02
9.610000000000000000e+05 -1.200000000000000000e+04 -2.775196909090909116e+02
9.610000000000000000e+05 -1.100000000000000000e+04 -2.775196909090909116e+02
9.610000000000000000e+05 -1.000000000000000000e+04 -2.775196909090909116e+02
9.610000000000000000e+05 -9.000000000000000000e+03 -2.775196909090909116e+02
9.610000000000000000e+05 -8.000000000000000000e+03 -2.775196909090909116e+02
9.610000000000000000e+05 -7.000000000000000000e+03 -2.775196909090906274e+02
9.610000000000000000e+05 -6.000000000000000000e+03 -2.775196909088865027e+02
9.610000000000000000e+05 -5.000000000000000000e+03 -2.775196908590785370e+02
9.610000000000000000e+05 -4.000000000000000000e+03 -2.775196864071200480e+02
9.610000000000000000e+05 -3.000000000000000000e+03 -2.775195418242912524e+02
9.610000000000000000e+05 -2.000000000000000000e+03 -2.775178746844194961e+02
9.610000000000000000e+05 -1.000000000000000000e+03 -2.775115511548318068e+02
9.610000000000000000e+05 0.000000000000000000e+00 -2.775062707231056720e+02
9.610000000000000000e+05 1.000000000000000000e+03 -2.775115511548318068e+02
9.610000000000000000e+05 2.000000000000000000e+03 -2.775178746844194961e+02
9.610000000000000000e+05 3.000000000000000000e+03 -2.775195418242912524e+02
9.610000000000000000e+05 4.000000000000000000e+03 -2.775196864071200480e+02
9.610000000000000000e+05 5.000000000000000000e+03 -2.775196908590785370e+02
9.610000000000000000e+05 6.000000000000000000e+03 -2.775196909088865027e+02
9.610000000000000000e+05 7.000000000000000000e+03 -2.775196909090906274e+02
9.610000000000000000e+05 8.000000000000000000e+03 -2.775196909090909116e+02
9.610000000000000000e+05 9.000000000000000000e+03 -2.775196909090909116e+02
9.610000000000000000e+05 1.000000000000000000e+04 -2.775196909090909116e+02
9.610000000000000000e+05 1.100000000000000000e+04 -2.775196909090909116e+02
9.610000000000000000e+05 1.200000000000000000e+04 -2.775196909090909116e+02
9.610000000000000000e+05 1.300000000000000000e+04 -2.775196909090909116e+02
9.610000000000000000e+05 1.400000000000000000e+04 -2.775196909090909116e+02
9.610000000000000000e+05 1.500000000000000000e+04 -2.775196909090909116e+02
9.610000000000000000e+05 1.600000000000000000e+04 -2.775196909090909116e+02
9.610000000000000000e+05 1.700000000000000000e+04 -2.775196909090909116e+02
9.610000000000000000e+05 1.800000000000000000e+04 -2.775196909090909116e+02
9.610000000000000000e+05 1.900000000000000000e+04 -2.775196909090909116e+02
9.610000000000000000e+05 2.000000000000000000e+04 -2.775196909090909116e+02
9.610000000000000000e+05 2.100000000000000000e+04 -2.775196909090909116e+02
9.610000000000000000e+05 2.200000000000000000e+04 -2.775196909090909116e+02
9.610000000000000000e+05 2.300000000000000000e+04 -2.775196909090909116e+02
9.610000000000000000e+05 2.400000000000000000e+04 -2.775196909090909116e+02
9.610000000000000000e+05 2.500000000000000000e+04 -2.775196909090909116e+02
9.620000000000000000e+05 -2.500000000000000000e+04 -2.785575471698113574e+02
9.620000000000000000e+05 -2.400000000000000000e+04 -2.785575471698113574e+02
9.620000000000000000e+05 -2.300000000000000000e+04 -2.785575471698113574e+02
9.620000000000000000e+05 -2.200000000000000000e+04 -2.785575471698113574e+02
9.620000000000000000e+05 -2.100000000000000000e+04 -2.785575471698113574e+02
9.620000000000000000e+05 -2.000000000000000000e+04 -2.785575471698113574e+02
9.620000000000000000e+05 -1.900000000000000000e+04 -2.785575471698113574e+02
9.620000000000000000e+05 -1.800000000000000000e+04 -2.785575471698113574e+02
9.620000000000000000e+05 -1.700000000000000000e+04 -2.785575471698113574e+02
9.620000000000000000e+05 -1.600000000000000000e+04 -2.785575471698113574e+02
9.620000000000000000e+05 -1.500000000000000000e+04 -2.785575471698113574e+02
9.620000000000000000e+05 -1.400000000000000000e+04 -2.785575471698113574e+02
9.620000000000000000e+05 -1.300000000000000000e+04 -2.785575471698113574e+02
9.620000000000000000e+05 -1.200000000000000000e+04 -2.785575471698113574e+02
9.620000000000000000e+05 -1.100000000000000000e+04 -2.785575471698113574e+02
9.620000000000000000e+05 -1.000000000000000000e+04 -2.785575471698113574e+02
9.620000000000000000e+05 -9.000000000000000000e+03 -2.785575471698113574e+02
9.620000000000000000e+05 -8.000000000000000000e+03 -2.785575471698113574e+02
9.620000000000000000e+05 -7.000000000000000000e+03 -2.785575471698109595e+02
9.620000000000000000e+05 -6.000000000000000000e+03 -2.785575471695550505e+02
9.620000000000000000e+05 -5.000000000000000000e+03 -2.785575471071013567e+02
9.620000000000000000e+05 -4.000000000000000000e+03 -2.785575415248391664e+02
9.620000000000000000e+05 -3.000000000000000000e+03 -2.785573602340063530e+02
9.620000000000000000e+05 -2.000000000000000000e+03 -2.785552698254957136e+02
9.620000000000000000e+05 -1.000000000000000000e+03 -2.785473408206824502e+02
9.620000000000000000e+05 0.000000000000000000e+00 -2.785407197449063119e+02
9.620000000000000000e+05 1.000000000000000000e+03 -2.785473408206824502e+02
9.620000000000000000e+05 2.000000000000000000e+03 -2.785552698254957136e+02
9.620000000000000000e+05 3.000000000000000000e+03 -2.785573602340063530e+02
9.620000000000000000e+05 4.000000000000000000e+03 -2.785575415248391664e+02
9.620000000000000000e+05 5.000000000000000000e+03 -2.785575471071013567e+02
9.620000000000000000e+05 6.000000000000000000e+03 -2.785575471695550505e+02
9.620000000000000000e+05 7.000000000000000000e+03 -2.785575471698109595e+02
9.620000000000000000e+05 8.000000000000000000e+03 -2.785575471698113574e+02
9.620000000000000000e+05 9.000000000000000000e+03 -2.785575471698113574e+02
9.620000000000000000e+05 1.000000000000000000e+04 -2.785575471698113574e+02
9.620000000000000000e+05 1.100000000000000000e+04 -2.785575471698113574e+02
9.620000000000000000e+05 1.200000000000000000e+04 -2.785575471698113574e+02
9.620000000000000000e+05 1.300000000000000000e+04 -2.785575471698113574e+02
9.620000000000000000e+05 1.400000000000000000e+04 -2.785575471698113574e+02
9.620000000000000000e+05 1.500000000000000000e+04 -2.785575471698113574e+02
9.620000000000000000e+05 1.600000000000000000e+04 -2.785575471698113574e+02
9.620000000000000000e+05 1.700000000000000000e+04 -2.785575471698113574e+02
9.620000000000000000e+05 1.800000000000000000e+04 -2.785575471698113574e+02
9.620000000000000000e+05 1.900000000000000000e+04 -2.785575471698113574e+02
9.620000000000000000e+05 2.000000000000000000e+04 -2.785575471698113574e+02
9.620000000000000000e+05 2.100000000000000000e+04 -2.785575471698113574e+02
9.620000000000000000e+05 2.200000000000000000e+04 -2.785575471698113574e+02
9.620000000000000000e+05 2.300000000000000000e+04 -2.785575471698113574e+02
9.620000000000000000e+05 2.400000000000000000e+04 -2.785575471698113574e+02
9.620000000000000000e+05 2.500000000000000000e+04 -2.785575471698113574e+02
9.630000000000000000e+05 -2.500000000000000000e+04 -2.795952830188679172e+02
9.630000000000000000e+05 -2.400000000000000000e+04 -2.795952830188679172e+02
9.630000000000000000e+05 -2.300000000000000000e+04 -2.795952830188679172e+02
9.630000000000000000e+05 -2.200000000000000000e+04 -2.795952830188679172e+02
9.630000000000000000e+05 -2.100000000000000000e+04 -2.795952830188679172e+02
9.630000000000000000e+05 -2.000000000000000000e+04 -2.795952830188679172e+02
9.630000000000000000e+05 -1.900000000000000000e+04 -2.795952830188679172e+02
9.630000000000000000e+05 -1.800000000000000000e+04 -2.795952830188679172e+02
9.630000000000000000e+05 -1.700000000000000000e+04 -2.795952830188679172e+02
9.630000000000000000e+05 -1.600000000000000000e+04 -2.795952830188679172e+02
9.630000000000000000e+05 -1.500000000000000000e+04 -2.795952830188679172e+02
9.630000000000000000e+05 -1.400000000000000000e+04 -2.795952830188679172e+02
9.630000000000000000e+05 -1.300000000000000000e+04 -2.795952830188679172e+02
9.630000000000000000e+05 -1.200000000000000000e+04 -2.795952830188679172e+02
9.630000000000000000e+05 -1.100000000000000000e+04 -2.795952830188679172e+02
9.630000000000000000e+05 -1.000000000000000000e+04 -2.795952830188679172e+02
9.630000000000000000e+05 -9.000000000000000000e+03 -2.795952830188679172e+02
9.630000000000000000e+05 -8.000000000000000000e+03 -2.795952830188679172e+02
9.630000000000000000e+05 -7.000000000000000000e+03 -2.795952830188674625e+02
9.630000000000000000e+05 -6.000000000000000000e+03 -2.795952830185473772e+02
9.630000000000000000e+05 -5.000000000000000000e+03 -2.795952829404328668e+02
9.630000000000000000e+05 -4.000000000000000000e+03 -2.795952759583721559e+02
9.630000000000000000e+05 -3.000000000000000000e+03 -2.795950492073599776e+02
9.630000000000000000e+05 -2.000000000000000000e+03 -2.795924346115841672e+02
9.630000000000000000e+05 -1.000000000000000000e+03 -2.795825173430764607e+02
9.630000000000000000e+05 0.000000000000000000e+00 -2.795742359776556896e+02
9.630000000000000000e+05 1.000000000000000000e+03 -2.795825173430764607e+02
9.630000000000000000e+05 2.000000000000000000e+03 -2.795924346115841672e+02
9.630000000000000000e+05 3.000000000000000000e+03 -2.795950492073599776e+02
9.630000000000000000e+05 4.000000000000000000e+03 -2.795952759583721559e+02
9.630000000000000000e+05 5.000000000000000000e+03 -2.795952829404328668e+02
9.630000000000000000e+05 6.000000000000000000e+03 -2.795952830185473772e+02
9.630000000000000000e+05 7.000000000000000000e+03 -2.795952830188674625e+02
9.630000000000000000e+05 8.000000000000000000e+03 -2.795952830188679172e+02
9.630000000000000000e+05 9.000000000000000000e+03 -2.795952830188679172e+02
9.630000000000000000e+05 1.000000000000000000e+04 -2.795952830188679172e+02
9.630000000000000000e+05 1.100000000000000000e+04 -2.795952830188679172e+02
9.630000000000000000e+05 1.200000000000000000e+04 -2.795952830188679172e+02
9.630000000000000000e+05 1.300000000000000000e+04 -2.795952830188679172e+02
9.630000000000000000e+05 1.400000000000000000e+04 -2.795952830188679172e+02
9.630000000000000000e+05 1.500000000000000000e+04 -2.795952830188679172e+02
9.630000000000000000e+05 1.600000000000000000e+04 -2.795952830188679172e+02
9.630000000000000000e+05 1.700000000000000000e+04 -2.795952830188679172e+02
9.630000000000000000e+05 1.800000000000000000e+04 -2.795952830188679172e+02
9.630000000000000000e+05 1.900000000000000000e+04 -2.795952830188679172e+02
9.630000000000000000e+05 2.000000000000000000e+04 -2.795952830188679172e+02
9.630000000000000000e+05 2.100000000000000000e+04 -2.795952830188679172e+02
9.630000000000000000e+05 2.200000000000000000e+04 -2.795952830188679172e+02
9.630000000000000000e+05 2.300000000000000000e+04 -2.795952830188679172e+02
9.630000000000000000e+05 2.400000000000000000e+04 -2.795952830188679172e+02
9.630000000000000000e+05 2.500000000000000000e+04 -2.795952830188679172e+02
9.640000000000000000e+05 -2.500000000000000000e+04 -2.806330188679245339e+02
9.640000000000000000e+05 -2.400000000000000000e+04 -2.806330188679245339e+02
9.640000000000000000e+05 -2.300000000000000000e+04 -2.806330188679245339e+02
9.640000000000000000e+05 -2.200000000000000000e+04 -2.806330188679245339e+02
9.640000000000000000e+05 -2.100000000000000000e+04 -2.806330188679245339e+02
9.640000000000000000e+05 -2.000000000000000000e+04 -2.806330188679245339e+02
9.640000000000000000e+05 -1.900000000000000000e+04 -2.806330188679245339e+02
9.640000000000000000e+05 -1.800000000000000000e+04 -2.806330188679245339e+02
9.640000000000000000e+05 -1.700000000000000000e+04 -2.806330188679245339e+02
9.640000000000000000e+05 -1.600000000000000000e+04 -2.806330188679245339e+02
9.640000000000000000e+05 -1.500000000000000000e+04 -2.806330188679245339e+02
9.640000000000000000e+05 -1.400000000000000000e+04 -2.806330188679245339e+02
9.640000000000000000e+05 -1.300000000000000000e+04 -2.806330188679245339e+02
9.640000000000000000e+05 -1.200000000000000000e+04 -2.806330188679245339e+02
9.640000000000000000e+05 -1.100000000000000000e+04 -2.806330188679245339e+02
9.640000000000000000e+05 -1.000000000000000000e+04 -2.806330188679245339e+02
9.640000000000000000e+05 -9.000000000000000000e+03 -2.806330188679245339e+02
9.640000000000000000e+05 -8.000000000000000000e+03 -2.806330188679245339e+02
9.640000000000000000e+05 -7.000000000000000000e+03 -2.806330188679239086e+02
9.640000000000000000e+05 -6.000000000000000000e+03 -2.806330188675245836e+02
9.640000000000000000e+05 -5.000000000000000000e+03 -2.806330187700662577e+02
9.640000000000000000e+05 -4.000000000000000000e+03 -2.806330100590008101e+02
9.640000000000000000e+05 -3.000000000000000000e+03 -2.806327271564335319e+02
9.640000000000000000e+05 -2.000000000000000000e+03 -2.806294650944474256e+02
9.640000000000000000e+05 -1.000000000000000000e+03 -2.806170919601736387e+02
9.640000000000000000e+05 0.000000000000000000e+00 -2.806067598363391085e+02
9.640000000000000000e+05 1.000000000000000000e+03 -2.806170919601736387e+02
9.640000000000000000e+05 2.000000000000000000e+03 -2.806294650944474256e+02
9.640000000000000000e+05 3.000000000000000000e+03 -2.806327271564335319e+02
9.640000000000000000e+05 4.000000000000000000e+03 -2.806330100590008101e+02
9.640000000000000000e+05 5.000000000000000000e+03 -2.806330187700662577e+02
9.640000000000000000e+05 6.000000000000000000e+03 -2.806330188675245836e+02
9.640000000000000000e+05 7.000000000000000000e+03 -2.806330188679239086e+02
9.640000000000000000e+05 8.000000000000000000e+03 -2.806330188679245339e+02
9.640000000000000000e+05 9.000000000000000000e+03 -2.806330188679245339e+02
9.640000000000000000e+05 1.000000000000000000e+04 -2.806330188679245339e+02
