-8.000000000000000000e+03 9.380000000000000000e+05 -2.536418638573744033e+02
-8.000000000000000000e+03 1.168000000000000000e+06 -4.923850877192982693e+02
-8.000000000000000000e+03 9.940000000000000000e+05 -3.117721734854786177e+02
-8.000000000000000000e+03 1.056000000000000000e+06 4.923384492631089415e+01
-8.000000000000000000e+03 1.175000000000000000e+06 -4.996733898305084836e+02
-8.000000000000000000e+03 9.970000000000000000e+05 -3.148832050186551896e+02
-8.000000000000000000e+03 1.066000000000000000e+06 -1.752855999923479544e+02
-8.000000000000000000e+03 9.440000000000000000e+05 -2.598655267423014834e+02
-8.000000000000000000e+03 9.550000000000000000e+05 -2.712917307692307531e+02
-8.000000000000000000e+03 9.540000000000000000e+05 -2.702550174825174736e+02
-8.000000000000000000e+03 1.055000000000000000e+06 5.674826161623337839e+01
-8.000000000000000000e+03 1.025000000000000000e+06 -3.374613233431304593e+02
-8.000000000000000000e+03 1.097000000000000000e+06 -4.186780816492528174e+02
-8.000000000000000000e+03 1.069000000000000000e+06 -2.487290535392929769e+02
-8.000000000000000000e+03 1.101000000000000000e+06 -4.228639800341344994e+02
-8.000000000000000000e+03 9.590000000000000000e+05 -2.754433272727272879e+02
-8.000000000000000000e+03 1.164000000000000000e+06 -4.882309090909091083e+02
-8.000000000000000000e+03 1.129000000000000000e+06 -4.518728571425923519e+02
-8.000000000000000000e+03 1.053000000000000000e+06 5.884254733051909625e+01
-8.000000000000000000e+03 9.390000000000000000e+05 -2.546791410048622311e+02
-8.000000000000000000e+03 9.580000000000000000e+05 -2.744051454545454476e+02
-8.000000000000000000e+03 1.068000000000000000e+06 -2.257198808978350826e+02
-8.000000000000000000e+03 1.165000000000000000e+06 -4.892692982456140385e+02
-8.000000000000000000e+03 1.098000000000000000e+06 -4.197322225713688795e+02
-8.000000000000000000e+03 1.054000000000000000e+06 5.996696660615583596e+01
-8.000000000000000000e+03 9.570000000000000000e+05 -2.733669636363636073e+02
-8.000000000000000000e+03 1.013000000000000000e+06 -3.314326160023224475e+02
-8.000000000000000000e+03 1.166000000000000000e+06 -4.903078947368421154e+02
-8.000000000000000000e+03 1.008000000000000000e+06 -3.263239688432992693e+02
-8.000000000000000000e+03 1.169000000000000000e+06 -4.934236842105263463e+02
-8.000000000000000000e+03 1.099000000000000000e+06 -4.207839033070048345e+02
-8.000000000000000000e+03 1.057000000000000000e+06 3.768466060756725255e+01
-8.000000000000000000e+03 1.171000000000000000e+06 -4.955038983050847605e+02
-8.000000000000000000e+03 1.125000000000000000e+06 -4.477158536536267661e+02
-8.000000000000000000e+03 1.063000000000000000e+06 -9.395409659510016809e+01
-8.000000000000000000e+03 1.023000000000000000e+06 -3.383763742603473474e+02
-8.000000000000000000e+03 9.500000000000000000e+05 -2.661079763912310341e+02
-8.000000000000000000e+03 1.172000000000000000e+06 -4.965462711864406629e+02
-8.000000000000000000e+03 1.060000000000000000e+06 -1.781094505736780320e+01
-8.000000000000000000e+03 1.100000000000000000e+06 -4.218321946497508179e+02
-8.000000000000000000e+03 1.126000000000000000e+06 -4.487442857118838333e+02
-8.000000000000000000e+03 1.176000000000000000e+06 -5.007157627118643859e+02
-8.000000000000000000e+03 9.490000000000000000e+05 -2.650675042158516135e+02
-8.000000000000000000e+03 1.173000000000000000e+06 -4.975886440677966220e+02
-8.000000000000000000e+03 1.011000000000000000e+06 -3.294192245063957216e+02
-8.000000000000000000e+03 9.960000000000000000e+05 -3.138463666972264150e+02
-8.000000000000000000e+03 1.061000000000000000e+06 -4.167267402559866696e+01
-8.000000000000000000e+03 1.112000000000000000e+06 -4.342866451575048927e+02
-8.000000000000000000e+03 1.062000000000000000e+06 -6.725118743009056743e+01
-8.000000000000000000e+03 1.059000000000000000e+06 3.736378853965049984e+00
-8.000000000000000000e+03 1.111000000000000000e+06 -4.332421839976341857e+02
-8.000000000000000000e+03 9.480000000000000000e+05 -2.640270320404721929e+02
-8.000000000000000000e+03 1.022000000000000000e+06 -3.382914421815627293e+02
-8.000000000000000000e+03 1.065000000000000000e+06 -1.484861819744139950e+02
-8.000000000000000000e+03 9.530000000000000000e+05 -2.692183041958041940e+02
-8.000000000000000000e+03 1.024000000000000000e+06 -3.381122882767123201e+02
-8.000000000000000000e+03 9.290000000000000000e+05 -2.443045112781954913e+02
-8.000000000000000000e+03 1.012000000000000000e+06 -3.304313106637176816e+02
-8.000000000000000000e+03 1.170000000000000000e+06 -4.944622807017544233e+02
-8.000000000000000000e+03 1.127000000000000000e+06 -4.497871428559795959e+02
-8.000000000000000000e+03 1.058000000000000000e+06 2.238262566596580427e+01
-8.000000000000000000e+03 1.113000000000000000e+06 -4.353310991282309601e+02
-8.000000000000000000e+03 1.177000000000000000e+06 -5.017475806451612925e+02
-8.000000000000000000e+03 1.010000000000000000e+06 -3.283997248755163696e+02
-8.000000000000000000e+03 9.520000000000000000e+05 -2.681815909090909145e+02
-8.000000000000000000e+03 1.064000000000000000e+06 -1.212023961175446516e+02
-8.000000000000000000e+03 9.950000000000000000e+05 -3.128095211866530008e+02
-8.000000000000000000e+03 9.510000000000000000e+05 -2.671448776223776349e+02
-8.000000000000000000e+03 9.340000000000000000e+05 -2.494921060842433747e+02
-8.000000000000000000e+03 1.109000000000000000e+06 -4.311684542757820395e+02
-8.000000000000000000e+03 1.163000000000000000e+06 -4.871927272727272680e+02
-8.000000000000000000e+03 9.930000000000000000e+05 -3.107342617936694751e+02
-8.000000000000000000e+03 1.052000000000000000e+06 5.345384492631086459e+01
-8.000000000000000000e+03 9.650000000000000000e+05 -2.816707547169811505e+02
-8.000000000000000000e+03 1.158000000000000000e+06 -4.820041509433962688e+02
-8.000000000000000000e+03 1.015000000000000000e+06 -3.333689037962251405e+02
-8.000000000000000000e+03 1.048000000000000000e+06 -5.334129581177307955e+00
-8.000000000000000000e+03 1.027000000000000000e+06 -3.346684567165046928e+02
-8.000000000000000000e+03 1.116000000000000000e+06 -4.384299980487328980e+02
-8.000000000000000000e+03 1.074000000000000000e+06 -3.360485031135676763e+02
-8.000000000000000000e+03 1.132000000000000000e+06 -4.550260465116012369e+02
-8.000000000000000000e+03 1.006000000000000000e+06 -3.242399014494522476e+02
-8.000000000000000000e+03 9.910000000000000000e+05 -3.086584349745193094e+02
-8.000000000000000000e+03 9.640000000000000000e+05 -2.806330188679245339e+02
-8.000000000000000000e+03 1.049000000000000000e+06 1.412736099682217628e+01
-8.000000000000000000e+03 1.073000000000000000e+06 -3.223985189950161612e+02
-8.000000000000000000e+03 1.096000000000000000e+06 -4.176225487589557588e+02
-8.000000000000000000e+03 1.108000000000000000e+06 -4.301340836716030935e+02
-8.000000000000000000e+03 9.630000000000000000e+05 -2.795952830188679172e+02
-8.000000000000000000e+03 9.300000000000000000e+05 -2.453421052631578902e+02
-8.000000000000000000e+03 1.131000000000000000e+06 -4.539702325580815909e+02
-8.000000000000000000e+03 1.075000000000000000e+06 -3.479717321486954802e+02
-8.000000000000000000e+03 1.047000000000000000e+06 -2.709351436173312777e+01
-8.000000000000000000e+03 1.133000000000000000e+06 -4.560818604651041142e+02
-8.000000000000000000e+03 1.117000000000000000e+06 -4.394563147450356837e+02
-8.000000000000000000e+03 9.680000000000000000e+05 -2.847860784313725162e+02
-8.000000000000000000e+03 1.005000000000000000e+06 -3.232126100713492747e+02
-8.000000000000000000e+03 1.155000000000000000e+06 -4.788966037735849000e+02
-8.000000000000000000e+03 1.156000000000000000e+06 -4.799324528301887085e+02
-8.000000000000000000e+03 9.330000000000000000e+05 -2.484546645865834762e+02
-8.000000000000000000e+03 1.021000000000000000e+06 -3.379658774889516053e+02
-8.000000000000000000e+03 9.670000000000000000e+05 -2.837468627450980421e+02
-8.000000000000000000e+03 1.046000000000000000e+06 -5.060530507714940995e+01
-8.000000000000000000e+03 1.124000000000000000e+06 -4.466890243803072167e+02
-8.000000000000000000e+03 9.900000000000000000e+05 -3.076202962501682237e+02
-8.000000000000000000e+03 1.076000000000000000e+06 -3.582686826781644527e+02
-8.000000000000000000e+03 9.660000000000000000e+05 -2.827084905660377672e+02
-8.000000000000000000e+03 1.157000000000000000e+06 -4.809683018867924602e+02
-8.000000000000000000e+03 1.032000000000000000e+06 -3.126487331832149721e+02
-8.000000000000000000e+03 1.107000000000000000e+06 -4.290996550225766555e+02
-8.000000000000000000e+03 1.072000000000000000e+06 -3.068889564088339057e+02
-8.000000000000000000e+03 1.159000000000000000e+06 -4.830400000000000205e+02
-8.000000000000000000e+03 1.160000000000000000e+06 -4.840781818181818608e+02
-8.000000000000000000e+03 1.174000000000000000e+06 -4.986310169491525244e+02
-8.000000000000000000e+03 1.161000000000000000e+06 -4.851163636363636442e+02
-8.000000000000000000e+03 9.920000000000000000e+05 -3.096963487596333380e+02
-8.000000000000000000e+03 9.470000000000000000e+05 -2.629865598650927723e+02
-8.000000000000000000e+03 9.610000000000000000e+05 -2.775196909090909116e+02
-8.000000000000000000e+03 1.014000000000000000e+06 -3.324129497127241279e+02
-8.000000000000000000e+03 1.071000000000000000e+06 -2.894054902677493146e+02
-8.000000000000000000e+03 1.007000000000000000e+06 -3.252808487210031672e+02
-8.000000000000000000e+03 1.026000000000000000e+06 -3.363292977189951216e+02
-8.000000000000000000e+03 1.070000000000000000e+06 -2.699874961189630085e+02
-8.000000000000000000e+03 9.600000000000000000e+05 -2.764815090909090713e+02
-8.000000000000000000e+03 1.162000000000000000e+06 -4.861545454545454845e+02
-8.000000000000000000e+03 1.130000000000000000e+06 -4.529157142855897860e+02
-8.000000000000000000e+03 1.178000000000000000e+06 -5.027782258064515872e+02
-8.000000000000000000e+03 1.051000000000000000e+06 4.398132727423393362e+01
-8.000000000000000000e+03 9.620000000000000000e+05 -2.785575471698113574e+02
-8.000000000000000000e+03 1.138000000000000000e+06 -4.612539130434780077e+02
-8.000000000000000000e+03 1.115000000000000000e+06 -4.374036806013521641e+02
-8.000000000000000000e+03 9.980000000000000000e+05 -3.159200310259315643e+02
-8.000000000000000000e+03 1.050000000000000000e+06 3.074057209453718542e+01
-7.000000000000000000e+03 1.024000000000000000e+06 -3.377368136507407144e+02
-7.000000000000000000e+03 1.133000000000000000e+06 -4.560818604651031478e+02
-7.000000000000000000e+03 1.023000000000000000e+06 -3.380996031370527248e+02
-7.000000000000000000e+03 1.137000000000000000e+06 -4.602278260869559858e+02
-7.000000000000000000e+03 1.128000000000000000e+06 -4.508299999993987512e+02
-7.000000000000000000e+03 1.092000000000000000e+06 -4.131234019110584654e+02
-7.000000000000000000e+03 9.850000000000000000e+05 -3.024274944840335593e+02
-7.000000000000000000e+03 1.126000000000000000e+06 -4.487442857116968185e+02
-7.000000000000000000e+03 1.094000000000000000e+06 -4.154516533782850729e+02
-7.000000000000000000e+03 1.129000000000000000e+06 -4.518728571425717178e+02
-7.000000000000000000e+03 1.026000000000000000e+06 -3.356586856072383398e+02
-7.000000000000000000e+03 1.096000000000000000e+06 -4.176175549901571458e+02
-7.000000000000000000e+03 1.030000000000000000e+06 -3.229174171979596508e+02
-7.000000000000000000e+03 9.320000000000000000e+05 -2.474172230889235493e+02
-7.000000000000000000e+03 1.093000000000000000e+06 -4.143042161840275526e+02
-7.000000000000000000e+03 1.097000000000000000e+06 -4.186748168740983829e+02
-7.000000000000000000e+03 9.960000000000000000e+05 -3.138463650220035674e+02
-7.000000000000000000e+03 9.450000000000000000e+05 -2.609056155143339311e+02
-7.000000000000000000e+03 1.028000000000000000e+06 -3.311494686482408838e+02
-7.000000000000000000e+03 1.130000000000000000e+06 -4.529157142855801226e+02
-7.000000000000000000e+03 9.900000000000000000e+05 -3.076202962070605054e+02
-7.000000000000000000e+03 9.930000000000000000e+05 -3.107342615125720044e+02
-7.000000000000000000e+03 9.940000000000000000e+05 -3.117721729707182590e+02
-7.000000000000000000e+03 1.136000000000000000e+06 -4.592017391304335661e+02
-7.000000000000000000e+03 1.134000000000000000e+06 -4.571376744185987491e+02
-7.000000000000000000e+03 9.410000000000000000e+05 -2.567536952998379434e+02
-7.000000000000000000e+03 1.135000000000000000e+06 -4.581756521739103505e+02
-7.000000000000000000e+03 1.127000000000000000e+06 -4.497871428558889875e+02
-7.000000000000000000e+03 1.027000000000000000e+06 -3.337855753004391204e+02
-7.000000000000000000e+03 9.920000000000000000e+05 -3.096963486076605250e+02
-7.000000000000000000e+03 1.025000000000000000e+06 -3.369570134759701432e+02
-7.000000000000000000e+03 1.031000000000000000e+06 -3.169936015148374508e+02
-7.000000000000000000e+03 1.099000000000000000e+06 -4.207825491340603321e+02
-7.000000000000000000e+03 1.091000000000000000e+06 -4.119176527194724713e+02
-7.000000000000000000e+03 9.880000000000000000e+05 -3.055426710702863033e+02
-7.000000000000000000e+03 9.910000000000000000e+05 -3.086584348931741033e+02
-7.000000000000000000e+03 9.860000000000000000e+05 -3.034650456195268475e+02
-7.000000000000000000e+03 1.095000000000000000e+06 -4.165486726325871700e+02
-7.000000000000000000e+03 1.131000000000000000e+06 -4.539702325580771003e+02
-7.000000000000000000e+03 9.890000000000000000e+05 -3.065814837052551525e+02
-7.000000000000000000e+03 9.870000000000000000e+05 -3.045038583638726664e+02
-7.000000000000000000e+03 9.950000000000000000e+05 -3.128095202533766042e+02
-7.000000000000000000e+03 1.029000000000000000e+06 -3.275910055259606111e+02
-7.000000000000000000e+03 1.098000000000000000e+06 -4.197301093977654318e+02
-7.000000000000000000e+03 1.132000000000000000e+06 -4.550260465115991337e+02
-7.000000000000000000e+03 1.042000000000000000e+06 -1.339616141970838896e+02
-7.000000000000000000e+03 1.032000000000000000e+06 -3.096432582115182299e+02
-7.000000000000000000e+03 1.051000000000000000e+06 7.629322832536774968e+01
-7.000000000000000000e+03 1.070000000000000000e+06 -2.605900720551029508e+02
-7.000000000000000000e+03 9.600000000000000000e+05 -2.764815090909090713e+02
-7.000000000000000000e+03 1.162000000000000000e+06 -4.861545454545454845e+02
-7.000000000000000000e+03 1.052000000000000000e+06 8.658372564692751894e+01
-7.000000000000000000e+03 1.163000000000000000e+06 -4.871927272727272680e+02
-7.000000000000000000e+03 9.610000000000000000e+05 -2.775196909090909116e+02
-7.000000000000000000e+03 1.069000000000000000e+06 -2.377560765172459298e+02
-7.000000000000000000e+03 1.178000000000000000e+06 -5.027782258064515872e+02
-7.000000000000000000e+03 1.164000000000000000e+06 -4.882309090909091083e+02
-7.000000000000000000e+03 1.053000000000000000e+06 9.247312207917747173e+01
-7.000000000000000000e+03 9.580000000000000000e+05 -2.744051454545454476e+02
-7.000000000000000000e+03 1.068000000000000000e+06 -2.130346852567069789e+02
-7.000000000000000000e+03 1.165000000000000000e+06 -4.892692982456140385e+02
-7.000000000000000000e+03 9.590000000000000000e+05 -2.754433272727272879e+02
-7.000000000000000000e+03 1.054000000000000000e+06 9.376611531225546514e+01
-7.000000000000000000e+03 1.161000000000000000e+06 -4.851163636363636442e+02
-7.000000000000000000e+03 9.620000000000000000e+05 -2.785575471698113574e+02
-7.000000000000000000e+03 9.650000000000000000e+05 -2.816707547169811505e+02
-7.000000000000000000e+03 1.158000000000000000e+06 -4.820041509433962688e+02
-7.000000000000000000e+03 1.048000000000000000e+06 2.289729250408760208e+01
-7.000000000000000000e+03 1.074000000000000000e+06 -3.314742857502712923e+02
-7.000000000000000000e+03 1.073000000000000000e+06 -3.168394223788099566e+02
-7.000000000000000000e+03 9.640000000000000000e+05 -2.806330188679245339e+02
-7.000000000000000000e+03 1.071000000000000000e+06 -2.814374735693581329e+02
-7.000000000000000000e+03 1.159000000000000000e+06 -4.830400000000000205e+02
-7.000000000000000000e+03 1.174000000000000000e+06 -4.986310169491525244e+02
-7.000000000000000000e+03 9.630000000000000000e+05 -2.795952830188679172e+02
-7.000000000000000000e+03 1.072000000000000000e+06 -3.002001488497631385e+02
-7.000000000000000000e+03 9.470000000000000000e+05 -2.629865598650927723e+02
-7.000000000000000000e+03 1.160000000000000000e+06 -4.840781818181818608e+02
-7.000000000000000000e+03 1.050000000000000000e+06 6.194111875909050013e+01
-7.000000000000000000e+03 1.049000000000000000e+06 4.395500503995134522e+01
-7.000000000000000000e+03 9.300000000000000000e+05 -2.453421052631578902e+02
-7.000000000000000000e+03 9.570000000000000000e+05 -2.733669636363636073e+02
-7.000000000000000000e+03 9.390000000000000000e+05 -2.546791410048622311e+02
-7.000000000000000000e+03 1.064000000000000000e+06 -1.007021761551085888e+02
-7.000000000000000000e+03 9.510000000000000000e+05 -2.671448776223776349e+02
-7.000000000000000000e+03 9.480000000000000000e+05 -2.640270320404721929e+02
-7.000000000000000000e+03 1.059000000000000000e+06 3.356402289709421893e+01
-7.000000000000000000e+03 1.171000000000000000e+06 -4.955038983050847605e+02
-7.000000000000000000e+03 1.063000000000000000e+06 -7.141084818137449020e+01
-7.000000000000000000e+03 1.058000000000000000e+06 5.358317233051911899e+01
-7.000000000000000000e+03 1.176000000000000000e+06 -5.007157627118643859e+02
-7.000000000000000000e+03 1.172000000000000000e+06 -4.965462711864406629e+02
-7.000000000000000000e+03 1.060000000000000000e+06 1.042047702789710684e+01
-7.000000000000000000e+03 1.062000000000000000e+06 -4.270796814324575053e+01
-7.000000000000000000e+03 9.490000000000000000e+05 -2.650675042158516135e+02
-7.000000000000000000e+03 1.173000000000000000e+06 -4.975886440677966220e+02
-7.000000000000000000e+03 1.061000000000000000e+06 -1.521792694462266127e+01
-7.000000000000000000e+03 9.500000000000000000e+05 -2.661079763912310341e+02
-7.000000000000000000e+03 1.166000000000000000e+06 -4.903078947368421154e+02
-7.000000000000000000e+03 9.520000000000000000e+05 -2.681815909090909145e+02
-7.000000000000000000e+03 9.290000000000000000e+05 -2.443045112781954913e+02
-7.000000000000000000e+03 1.055000000000000000e+06 9.037883636489175387e+01
-7.000000000000000000e+03 1.067000000000000000e+06 -1.866244653512307536e+02
-7.000000000000000000e+03 9.560000000000000000e+05 -2.723287818181817670e+02
-7.000000000000000000e+03 1.167000000000000000e+06 -4.913464912280701924e+02
-7.000000000000000000e+03 9.550000000000000000e+05 -2.712917307692307531e+02
-7.000000000000000000e+03 1.168000000000000000e+06 -4.923850877192982693e+02
-7.000000000000000000e+03 1.170000000000000000e+06 -4.944622807017544233e+02
-7.000000000000000000e+03 1.056000000000000000e+06 8.236372564692754850e+01
-7.000000000000000000e+03 9.380000000000000000e+05 -2.536418638573744033e+02
-7.000000000000000000e+03 9.540000000000000000e+05 -2.702550174825174736e+02
-7.000000000000000000e+03 1.169000000000000000e+06 -4.934236842105263463e+02
-7.000000000000000000e+03 1.057000000000000000e+06 6.999656165870106861e+01
-7.000000000000000000e+03 1.065000000000000000e+06 -1.300293312238202930e+02
-7.000000000000000000e+03 9.530000000000000000e+05 -2.692183041958041940e+02
-7.000000000000000000e+03 1.066000000000000000e+06 -1.588337881101273581e+02
-7.000000000000000000e+03 1.075000000000000000e+06 -3.442453582490036297e+02
-7.000000000000000000e+03 1.047000000000000000e+06 -6.387672807571220801e-01
-7.000000000000000000e+03 1.157000000000000000e+06 -4.809683018867924602e+02
-7.000000000000000000e+03 1.086000000000000000e+06 -4.044846189853859642e+02
-7.000000000000000000e+03 9.790000000000000000e+05 -2.962017124732875573e+02
-7.000000000000000000e+03 1.144000000000000000e+06 -4.674916326530612309e+02
-7.000000000000000000e+03 1.037000000000000000e+06 -2.461059735693581274e+02
-7.000000000000000000e+03 1.085000000000000000e+06 -4.024226800601296077e+02
-7.000000000000000000e+03 9.780000000000000000e+05 -2.951636575051512636e+02
-7.000000000000000000e+03 1.143000000000000000e+06 -4.664502127659574739e+02
-7.000000000000000000e+03 1.145000000000000000e+06 -4.685304081632652924e+02
-7.000000000000000000e+03 1.038000000000000000e+06 -2.273555720551029253e+02
-7.000000000000000000e+03 1.084000000000000000e+06 -4.000297416904429610e+02
-7.000000000000000000e+03 9.770000000000000000e+05 -2.941256025369354461e+02
-7.000000000000000000e+03 9.310000000000000000e+05 -2.463796992481202892e+02
-7.000000000000000000e+03 9.760000000000000000e+05 -2.930884146341175551e+02
-7.000000000000000000e+03 1.039000000000000000e+06 -2.065825765172458830e+02
-7.000000000000000000e+03 1.146000000000000000e+06 -4.695691836734694107e+02
-7.000000000000000000e+03 1.083000000000000000e+06 -3.972005618630669233e+02
-7.000000000000000000e+03 9.800000000000000000e+05 -2.972397674412592323e+02
-7.000000000000000000e+03 1.035000000000000000e+06 -2.773828839172714993e+02
-7.000000000000000000e+03 1.090000000000000000e+06 -4.106696781940507890e+02
-7.000000000000000000e+03 9.840000000000000000e+05 -3.013901318574212382e+02
-7.000000000000000000e+03 1.139000000000000000e+06 -4.622799999999998590e+02
-7.000000000000000000e+03 1.033000000000000000e+06 -3.006922437708891493e+02
-7.000000000000000000e+03 9.830000000000000000e+05 -3.003527692254770614e+02
-7.000000000000000000e+03 1.089000000000000000e+06 -4.093353372059389699e+02
-7.000000000000000000e+03 1.087000000000000000e+06 -4.062861866790155432e+02
-7.000000000000000000e+03 1.140000000000000000e+06 -4.633225531914893054e+02
-7.000000000000000000e+03 1.034000000000000000e+06 -2.899843699253555087e+02
-7.000000000000000000e+03 1.141000000000000000e+06 -4.643651063829786949e+02
-7.000000000000000000e+03 9.360000000000000000e+05 -2.515669890795631716e+02
-7.000000000000000000e+03 1.088000000000000000e+06 -4.078870554440358660e+02
-7.000000000000000000e+03 9.810000000000000000e+05 -2.982778224088941670e+02
-7.000000000000000000e+03 1.142000000000000000e+06 -4.654076595744680844e+02
-7.000000000000000000e+03 9.820000000000000000e+05 -2.993154065908177017e+02
-7.000000000000000000e+03 1.147000000000000000e+06 -4.706079591836734721e+02
-7.000000000000000000e+03 1.082000000000000000e+06 -3.938240081878835213e+02
-7.000000000000000000e+03 9.750000000000000000e+05 -2.920518292682795618e+02
-7.000000000000000000e+03 1.153000000000000000e+06 -4.768252941176470472e+02
-7.000000000000000000e+03 1.044000000000000000e+06 -8.001159644496362944e+01
-7.000000000000000000e+03 9.690000000000000000e+05 -2.858252941176469903e+02
-7.000000000000000000e+03 1.154000000000000000e+06 -4.778607547169811482e+02
-7.000000000000000000e+03 1.045000000000000000e+06 -5.274084818137441744e+01
-7.000000000000000000e+03 1.077000000000000000e+06 -3.646834928191852896e+02
-7.000000000000000000e+03 9.700000000000000000e+05 -2.868645098039213508e+02
-7.000000000000000000e+03 9.680000000000000000e+05 -2.847860784313725162e+02
-7.000000000000000000e+03 9.370000000000000000e+05 -2.526044305772230985e+02
-7.000000000000000000e+03 9.670000000000000000e+05 -2.837468627450980421e+02
-7.000000000000000000e+03 1.156000000000000000e+06 -4.799324528301887085e+02
-7.000000000000000000e+03 1.046000000000000000e+06 -2.606208579030459305e+01
-7.000000000000000000e+03 1.076000000000000000e+06 -3.552632077064677105e+02
-7.000000000000000000e+03 9.660000000000000000e+05 -2.827084905660377672e+02
-7.000000000000000000e+03 1.155000000000000000e+06 -4.788966037735849000e+02
-7.000000000000000000e+03 1.078000000000000000e+06 -3.726785817942329686e+02
-7.000000000000000000e+03 1.152000000000000000e+06 -4.757900000000000205e+02
-7.000000000000000000e+03 9.710000000000000000e+05 -2.879037254901955976e+02
-7.000000000000000000e+03 1.148000000000000000e+06 -4.716467346938775336e+02
-7.000000000000000000e+03 1.040000000000000000e+06 -1.839413156914895637e+02
-7.000000000000000000e+03 1.081000000000000000e+06 -3.898112895861533502e+02
-7.000000000000000000e+03 9.740000000000000000e+05 -2.910152439024330988e+02
-7.000000000000000000e+03 9.460000000000000000e+05 -2.619460876897133517e+02
-7.000000000000000000e+03 1.149000000000000000e+06 -4.726841176470588266e+02
-7.000000000000000000e+03 1.041000000000000000e+06 -1.596450145503154090e+02
-7.000000000000000000e+03 1.080000000000000000e+06 -3.850745876958599183e+02
-7.000000000000000000e+03 9.730000000000000000e+05 -2.899786585365827136e+02
-7.000000000000000000e+03 1.150000000000000000e+06 -4.737194117647058533e+02
-7.000000000000000000e+03 9.720000000000000000e+05 -2.889420731707305094e+02
-7.000000000000000000e+03 1.151000000000000000e+06 -4.747547058823529369e+02
-7.000000000000000000e+03 1.079000000000000000e+06 -3.794194579069130100e+02
-7.000000000000000000e+03 9.400000000000000000e+05 -2.557164181523500872e+02
-7.000000000000000000e+03 1.043000000000000000e+06 -1.072518433011150023e+02
-7.000000000000000000e+03 1.138000000000000000e+06 -4.612539130434780077e+02
-7.000000000000000000e+03 1.100000000000000000e+06 -4.218313354974779372e+02
-7.000000000000000000e+03 1.036000000000000000e+06 -2.627789250735393125e+02
-7.000000000000000000e+03 1.005000000000000000e+06 -3.232124034379564250e+02
-7.000000000000000000e+03 1.010000000000000000e+06 -3.283976117019129219e+02
-7.000000000000000000e+03 1.006000000000000000e+06 -3.242395658406596795e+02
-7.000000000000000000e+03 1.105000000000000000e+06 -4.269898570587362769e+02
-7.000000000000000000e+03 1.175000000000000000e+06 -4.996733898305084836e+02
-7.000000000000000000e+03 1.106000000000000000e+06 -4.280448259556057451e+02
-7.000000000000000000e+03 1.102000000000000000e+06 -4.238844462234347930e+02
-7.000000000000000000e+03 1.003000000000000000e+06 -3.211563163888798158e+02
-7.000000000000000000e+03 1.013000000000000000e+06 -3.314250535849681114e+02
-7.000000000000000000e+03 9.990000000000000000e+05 -3.169637079197562457e+02
-7.000000000000000000e+03 1.019000000000000000e+06 -3.367217657773675228e+02
-7.000000000000000000e+03 1.120000000000000000e+06 -4.425607690681787858e+02
-7.000000000000000000e+03 9.420000000000000000e+05 -2.577909724473257711e+02
-7.000000000000000000e+03 1.001000000000000000e+06 -3.190670892941993770e+02
-7.000000000000000000e+03 1.011000000000000000e+06 -3.294159597312412870e+02
-7.000000000000000000e+03 9.980000000000000000e+05 -3.159200257878978846e+02
-7.000000000000000000e+03 1.103000000000000000e+06 -4.249044130073344263e+02
-7.000000000000000000e+03 1.022000000000000000e+06 -3.380894576950634018e+02
-7.000000000000000000e+03 9.440000000000000000e+05 -2.598655267423014834e+02
-7.000000000000000000e+03 1.122000000000000000e+06 -4.446353658110849096e+02
-7.000000000000000000e+03 1.000000000000000000e+06 -3.180154298897883791e+02
-7.000000000000000000e+03 1.119000000000000000e+06 -4.415223073792979562e+02
-7.000000000000000000e+03 1.014000000000000000e+06 -3.324016113614783308e+02
-7.000000000000000000e+03 1.012000000000000000e+06 -3.304263168949190685e+02
-7.000000000000000000e+03 1.008000000000000000e+06 -3.263231096910263886e+02
-7.000000000000000000e+03 1.007000000000000000e+06 -3.252803090572998599e+02
-7.000000000000000000e+03 1.015000000000000000e+06 -3.333520733268846925e+02
-7.000000000000000000e+03 1.016000000000000000e+06 -3.342691582135794306e+02
-7.000000000000000000e+03 1.123000000000000000e+06 -4.456621951004902940e+02
-7.000000000000000000e+03 1.017000000000000000e+06 -3.351469384337581801e+02
-7.000000000000000000e+03 1.004000000000000000e+06 -3.221845725873962465e+02
-7.000000000000000000e+03 9.340000000000000000e+05 -2.494921060842433747e+02
-7.000000000000000000e+03 1.113000000000000000e+06 -4.353310981949545635e+02
-7.000000000000000000e+03 9.970000000000000000e+05 -3.148832020415655961e+02
-7.000000000000000000e+03 1.101000000000000000e+06 -4.228634403704311922e+02
-7.000000000000000000e+03 1.116000000000000000e+06 -4.384299978967600850e+02
-7.000000000000000000e+03 1.118000000000000000e+06 -4.404838455572536873e+02
-7.000000000000000000e+03 1.114000000000000000e+06 -4.363755484314871183e+02
-7.000000000000000000e+03 1.020000000000000000e+06 -3.373497197212162746e+02
-7.000000000000000000e+03 1.107000000000000000e+06 -4.290996281543029909e+02
-7.000000000000000000e+03 1.110000000000000000e+06 -4.322027846506567812e+02
-7.000000000000000000e+03 1.125000000000000000e+06 -4.477158536532443804e+02
-7.000000000000000000e+03 9.330000000000000000e+05 -2.484546645865834762e+02
-7.000000000000000000e+03 1.021000000000000000e+06 -3.378199381724444379e+02
-7.000000000000000000e+03 1.124000000000000000e+06 -4.466890243795332935e+02
-7.000000000000000000e+03 9.350000000000000000e+05 -2.505295475819032731e+02
-7.000000000000000000e+03 1.104000000000000000e+06 -4.259346204342862166e+02
-7.000000000000000000e+03 1.108000000000000000e+06 -4.301340679356803207e+02
-7.000000000000000000e+03 1.115000000000000000e+06 -4.374036803202546935e+02
-7.000000000000000000e+03 1.111000000000000000e+06 -4.332421810205445922e+02
-7.000000000000000000e+03 1.117000000000000000e+06 -4.394563146636904776e+02
-7.000000000000000000e+03 1.009000000000000000e+06 -3.273634810337019303e+02
-7.000000000000000000e+03 1.002000000000000000e+06 -3.201186460215501484e+02
-7.000000000000000000e+03 1.177000000000000000e+06 -5.017475806451612925e+02
-7.000000000000000000e+03 1.018000000000000000e+06 -3.359775353369079198e+02
-7.000000000000000000e+03 1.112000000000000000e+06 -4.342866434822820452e+02
-7.000000000000000000e+03 1.109000000000000000e+06 -4.311684451514365151e+02
-7.000000000000000000e+03 9.430000000000000000e+05 -2.588282495948135988e+02
-7.000000000000000000e+03 1.121000000000000000e+06 -4.435992306856148275e+02
-6.000000000000000000e+03 1.079000000000000000e+06 -3.780391916176676546e+02
-6.000000000000000000e+03 1.135000000000000000e+06 -4.581756521739101800e+02
-6.000000000000000000e+03 1.030000000000000000e+06 -3.211539595689216071e+02
-6.000000000000000000e+03 1.058000000000000000e+06 8.258261013584592547e+01
-6.000000000000000000e+03 1.095000000000000000e+06 -4.165416437220336547e+02
-6.000000000000000000e+03 1.113000000000000000e+06 -4.353310973275180800e+02
-6.000000000000000000e+03 1.151000000000000000e+06 -4.747547058823529369e+02
-6.000000000000000000e+03 1.052000000000000000e+06 1.173763885378926943e+02
-6.000000000000000000e+03 1.045000000000000000e+06 -3.178796112678372765e+01
-6.000000000000000000e+03 9.520000000000000000e+05 -2.681815909090909145e+02
-6.000000000000000000e+03 1.171000000000000000e+06 -4.955038983050847605e+02
-6.000000000000000000e+03 1.119000000000000000e+06 -4.415223073582765210e+02
-6.000000000000000000e+03 9.680000000000000000e+05 -2.847860784313725162e+02
-6.000000000000000000e+03 1.170000000000000000e+06 -4.944622807017544233e+02
-6.000000000000000000e+03 1.117000000000000000e+06 -4.394563145880840125e+02
-6.000000000000000000e+03 1.020000000000000000e+06 -3.372526886040335512e+02
-6.000000000000000000e+03 9.410000000000000000e+05 -2.567536952998379434e+02
-6.000000000000000000e+03 1.077000000000000000e+06 -3.624528798009261550e+02
-6.000000000000000000e+03 9.580000000000000000e+05 -2.744051454545454476e+02
-6.000000000000000000e+03 1.004000000000000000e+06 -3.221844555156454248e+02
-6.000000000000000000e+03 1.150000000000000000e+06 -4.737194117647058533e+02
-6.000000000000000000e+03 1.042000000000000000e+06 -1.186704303408275223e+02
-6.000000000000000000e+03 9.870000000000000000e+05 -3.045038583582571050e+02
-6.000000000000000000e+03 9.720000000000000000e+05 -2.889420731707304526e+02
-6.000000000000000000e+03 1.021000000000000000e+06 -3.376842944551115124e+02
-6.000000000000000000e+03 1.123000000000000000e+06 -4.456621950990490291e+02
-6.000000000000000000e+03 1.092000000000000000e+06 -4.131004125459419356e+02
-6.000000000000000000e+03 1.118000000000000000e+06 -4.404838455171871487e+02
-6.000000000000000000e+03 1.132000000000000000e+06 -4.550260465115972011e+02
-6.000000000000000000e+03 1.136000000000000000e+06 -4.592017391304335092e+02
-6.000000000000000000e+03 9.400000000000000000e+05 -2.557164181523500872e+02
-6.000000000000000000e+03 1.010000000000000000e+06 -3.283956476066314281e+02
-6.000000000000000000e+03 1.111000000000000000e+06 -4.332421782534801196e+02
-6.000000000000000000e+03 9.890000000000000000e+05 -3.065814836842337172e+02
-6.000000000000000000e+03 1.153000000000000000e+06 -4.768252941176470472e+02
-6.000000000000000000e+03 1.133000000000000000e+06 -4.560818604651022952e+02
-6.000000000000000000e+03 1.044000000000000000e+06 -6.095760805854916953e+01
-6.000000000000000000e+03 1.176000000000000000e+06 -5.007157627118643859e+02
-6.000000000000000000e+03 1.154000000000000000e+06 -4.778607547169811482e+02
-6.000000000000000000e+03 1.094000000000000000e+06 -4.154411149151195559e+02
-6.000000000000000000e+03 9.700000000000000000e+05 -2.868645098039213508e+02
-6.000000000000000000e+03 1.109000000000000000e+06 -4.311684366707873437e+02
-6.000000000000000000e+03 1.016000000000000000e+06 -3.342461688484629008e+02
-6.000000000000000000e+03 9.510000000000000000e+05 -2.671448776223776349e+02
-6.000000000000000000e+03 1.114000000000000000e+06 -4.363755479530416324e+02
-6.000000000000000000e+03 9.690000000000000000e+05 -2.858252941176469903e+02
-6.000000000000000000e+03 1.177000000000000000e+06 -5.017475806451612925e+02
-6.000000000000000000e+03 1.163000000000000000e+06 -4.871927272727272680e+02
-6.000000000000000000e+03 1.028000000000000000e+06 -3.300798775291252127e+02
-6.000000000000000000e+03 1.069000000000000000e+06 -2.275572114745494048e+02
-6.000000000000000000e+03 1.059000000000000000e+06 6.128741241356226510e+01
-6.000000000000000000e+03 9.480000000000000000e+05 -2.640270320404721929e+02
-6.000000000000000000e+03 9.590000000000000000e+05 -2.754433272727272879e+02
-6.000000000000000000e+03 1.053000000000000000e+06 1.237311564741038410e+02
-6.000000000000000000e+03 1.164000000000000000e+06 -4.882309090909091083e+02
-6.000000000000000000e+03 9.880000000000000000e+05 -3.055426710593669100e+02
-6.000000000000000000e+03 9.900000000000000000e+05 -3.076202961669939668e+02
-6.000000000000000000e+03 1.106000000000000000e+06 -4.280447837401247853e+02
-6.000000000000000000e+03 1.102000000000000000e+06 -4.238841342908775118e+02
-6.000000000000000000e+03 9.320000000000000000e+05 -2.474172230889235493e+02
-6.000000000000000000e+03 9.990000000000000000e+05 -3.169636994391070743e+02
-6.000000000000000000e+03 1.110000000000000000e+06 -4.322027797821513104e+02
-6.000000000000000000e+03 9.710000000000000000e+05 -2.879037254901955407e+02
-6.000000000000000000e+03 1.152000000000000000e+06 -4.757900000000000205e+02
-6.000000000000000000e+03 1.029000000000000000e+06 -3.262107392367152556e+02
-6.000000000000000000e+03 1.064000000000000000e+06 -8.164818776869412886e+01
-6.000000000000000000e+03 9.330000000000000000e+05 -2.484546645865834762e+02
-6.000000000000000000e+03 9.860000000000000000e+05 -3.034650456166676804e+02
-6.000000000000000000e+03 1.134000000000000000e+06 -4.571376744185983512e+02
-6.000000000000000000e+03 1.093000000000000000e+06 -4.142885730559081026e+02
-6.000000000000000000e+03 1.078000000000000000e+06 -3.709151241651949249e+02
-6.000000000000000000e+03 1.043000000000000000e+06 -9.009707030375216164e+01
-6.000000000000000000e+03 1.031000000000000000e+06 -3.147629884965783162e+02
-6.000000000000000000e+03 1.055000000000000000e+06 1.216368707598181231e+02
-6.000000000000000000e+03 9.560000000000000000e+05 -2.723287818181817670e+02
-6.000000000000000000e+03 9.310000000000000000e+05 -2.463796992481202892e+02
-6.000000000000000000e+03 1.088000000000000000e+06 -4.077900243268531426e+02
-6.000000000000000000e+03 1.038000000000000000e+06 -2.186211092394306093e+02
-6.000000000000000000e+03 9.360000000000000000e+05 -2.515669890795631716e+02
-6.000000000000000000e+03 1.084000000000000000e+06 -3.996807557197672622e+02
-6.000000000000000000e+03 1.141000000000000000e+06 -4.643651063829786949e+02
-6.000000000000000000e+03 1.001000000000000000e+06 -3.190670643214050983e+02
-6.000000000000000000e+03 1.145000000000000000e+06 -4.685304081632652924e+02
-6.000000000000000000e+03 9.380000000000000000e+05 -2.536418638573744033e+02
-6.000000000000000000e+03 1.120000000000000000e+06 -4.425607690572593924e+02
-6.000000000000000000e+03 1.034000000000000000e+06 -2.857328504452285642e+02
-6.000000000000000000e+03 1.146000000000000000e+06 -4.695691836734694107e+02
-6.000000000000000000e+03 1.019000000000000000e+06 -3.366530463652590015e+02
-6.000000000000000000e+03 9.820000000000000000e+05 -2.993154065906438177e+02
-6.000000000000000000e+03 9.540000000000000000e+05 -2.702550174825174736e+02
-6.000000000000000000e+03 1.009000000000000000e+06 -3.273622223937650801e+02
-6.000000000000000000e+03 1.166000000000000000e+06 -4.903078947368421154e+02
-6.000000000000000000e+03 1.067000000000000000e+06 -1.731300429612328742e+02
-6.000000000000000000e+03 9.770000000000000000e+05 -2.941256025369312397e+02
-6.000000000000000000e+03 1.140000000000000000e+06 -4.633225531914893054e+02
-6.000000000000000000e+03 9.810000000000000000e+05 -2.982778224088099250e+02
-6.000000000000000000e+03 1.066000000000000000e+06 -1.435426042538709908e+02
-6.000000000000000000e+03 1.036000000000000000e+06 -2.565619936560701717e+02
-6.000000000000000000e+03 9.550000000000000000e+05 -2.712917307692307531e+02
-6.000000000000000000e+03 1.086000000000000000e+06 -4.042968839236623921e+02
-6.000000000000000000e+03 1.002000000000000000e+06 -3.201186038060691885e+02
-6.000000000000000000e+03 1.143000000000000000e+06 -4.664502127659574739e+02
-6.000000000000000000e+03 9.790000000000000000e+05 -2.962017124732683442e+02
-6.000000000000000000e+03 1.104000000000000000e+06 -4.259345033625353949e+02
-6.000000000000000000e+03 1.121000000000000000e+06 -4.435992306799992662e+02
-6.000000000000000000e+03 9.800000000000000000e+05 -2.972397674412188735e+02
-6.000000000000000000e+03 9.780000000000000000e+05 -2.951636575051422255e+02
-6.000000000000000000e+03 1.144000000000000000e+06 -4.674916326530612309e+02
-6.000000000000000000e+03 1.167000000000000000e+06 -4.913464912280701924e+02
-6.000000000000000000e+03 1.168000000000000000e+06 -4.923850877192982693e+02
-6.000000000000000000e+03 9.430000000000000000e+05 -2.588282495948135988e+02
-6.000000000000000000e+03 1.056000000000000000e+06 1.131563885378927239e+02
-6.000000000000000000e+03 1.037000000000000000e+06 -2.387000775393595404e+02
-6.000000000000000000e+03 1.035000000000000000e+06 -2.722159655837980949e+02
-6.000000000000000000e+03 1.085000000000000000e+06 -4.021654343438098067e+02
-6.000000000000000000e+03 1.018000000000000000e+06 -3.359293511101045624e+02
-6.000000000000000000e+03 1.142000000000000000e+06 -4.654076595744680844e+02
-6.000000000000000000e+03 1.087000000000000000e+06 -4.061505429616826177e+02
-6.000000000000000000e+03 1.080000000000000000e+06 -3.840049965767442472e+02
-6.000000000000000000e+03 9.760000000000000000e+05 -2.930884146341156224e+02
-6.000000000000000000e+03 1.089000000000000000e+06 -4.092666177938304486e+02
-6.000000000000000000e+03 9.740000000000000000e+05 -2.910152439024327009e+02
-6.000000000000000000e+03 1.138000000000000000e+06 -4.612539130434780077e+02
-6.000000000000000000e+03 1.017000000000000000e+06 -3.351134891048861277e+02
-6.000000000000000000e+03 9.530000000000000000e+05 -2.692183041958041940e+02
-6.000000000000000000e+03 9.460000000000000000e+05 -2.619460876897133517e+02
-6.000000000000000000e+03 9.450000000000000000e+05 -2.609056155143339311e+02
-6.000000000000000000e+03 1.178000000000000000e+06 -5.027782258064515872e+02
-6.000000000000000000e+03 1.149000000000000000e+06 -4.726841176470588266e+02
-6.000000000000000000e+03 9.850000000000000000e+05 -3.024274944825922944e+02
-6.000000000000000000e+03 1.032000000000000000e+06 -3.068498108577190351e+02
-6.000000000000000000e+03 9.390000000000000000e+05 -2.546791410048622311e+02
-6.000000000000000000e+03 1.137000000000000000e+06 -4.602278260869559290e+02
-6.000000000000000000e+03 9.420000000000000000e+05 -2.577909724473257711e+02
-6.000000000000000000e+03 1.008000000000000000e+06 -3.263223111494760929e+02
-6.000000000000000000e+03 1.000000000000000000e+06 -3.180154152639896665e+02
-6.000000000000000000e+03 1.091000000000000000e+06 -4.118842033906004190e+02
-6.000000000000000000e+03 9.290000000000000000e+05 -2.443045112781954913e+02
-6.000000000000000000e+03 1.012000000000000000e+06 -3.304216754221511678e+02
-6.000000000000000000e+03 9.730000000000000000e+05 -2.899786585365825431e+02
-6.000000000000000000e+03 1.068000000000000000e+06 -2.012443936955265542e+02
-6.000000000000000000e+03 1.027000000000000000e+06 -3.329649786298122081e+02
-6.000000000000000000e+03 1.039000000000000000e+06 -1.963837114745493579e+02
-6.000000000000000000e+03 1.081000000000000000e+06 -3.889906929155264379e+02
-6.000000000000000000e+03 1.065000000000000000e+06 -1.128745582264574523e+02
-6.000000000000000000e+03 1.013000000000000000e+06 -3.314180246744145961e+02
-6.000000000000000000e+03 1.083000000000000000e+06 -3.967318296070406518e+02
-6.000000000000000000e+03 1.169000000000000000e+06 -4.934236842105263463e+02
-6.000000000000000000e+03 1.003000000000000000e+06 -3.211562457354255002e+02
-6.000000000000000000e+03 9.830000000000000000e+05 -3.003527692251216195e+02
-6.000000000000000000e+03 1.147000000000000000e+06 -4.706079591836734721e+02
-6.000000000000000000e+03 1.057000000000000000e+06 1.000289509940063795e+02
-6.000000000000000000e+03 1.033000000000000000e+06 -2.972287548357327864e+02
-6.000000000000000000e+03 9.570000000000000000e+05 -2.733669636363636073e+02
-6.000000000000000000e+03 1.165000000000000000e+06 -4.892692982456140385e+02
-6.000000000000000000e+03 1.082000000000000000e+06 -3.932007058324641093e+02
-6.000000000000000000e+03 1.103000000000000000e+06 -4.249042209513333432e+02
-6.000000000000000000e+03 9.750000000000000000e+05 -2.920518292682787092e+02
-6.000000000000000000e+03 1.105000000000000000e+06 -4.269897864052819614e+02
-6.000000000000000000e+03 1.148000000000000000e+06 -4.716467346938775336e+02
-6.000000000000000000e+03 1.122000000000000000e+06 -4.446353658082257425e+02
-6.000000000000000000e+03 9.840000000000000000e+05 -3.013901318567019416e+02
-6.000000000000000000e+03 1.040000000000000000e+06 -1.721510241303091391e+02
-6.000000000000000000e+03 1.090000000000000000e+06 -4.106214939672474316e+02
-6.000000000000000000e+03 1.054000000000000000e+06 1.251808312566103041e+02
-6.000000000000000000e+03 1.139000000000000000e+06 -4.622799999999998590e+02
-6.000000000000000000e+03 1.041000000000000000e+06 -1.461505921603175295e+02
-6.000000000000000000e+03 1.050000000000000000e+06 9.094055656441730662e+01
-6.000000000000000000e+03 9.630000000000000000e+05 -2.795952830188679172e+02
-6.000000000000000000e+03 1.049000000000000000e+06 7.167839455641939139e+01
-6.000000000000000000e+03 1.124000000000000000e+06 -4.466890243788139969e+02
-6.000000000000000000e+03 9.350000000000000000e+05 -2.505295475819032731e+02
-6.000000000000000000e+03 1.075000000000000000e+06 -3.407818693138472668e+02
-6.000000000000000000e+03 9.500000000000000000e+05 -2.661079763912310341e+02
-6.000000000000000000e+03 1.051000000000000000e+06 1.063256176606730605e+02
-6.000000000000000000e+03 9.920000000000000000e+05 -3.096963484664090061e+02
-6.000000000000000000e+03 1.173000000000000000e+06 -4.975886440677966220e+02
-6.000000000000000000e+03 9.940000000000000000e+05 -3.117721724922727731e+02
-6.000000000000000000e+03 1.011000000000000000e+06 -3.294129252765871456e+02
-6.000000000000000000e+03 1.007000000000000000e+06 -3.252798074653191520e+02
-6.000000000000000000e+03 9.970000000000000000e+05 -3.148831992745011235e+02
-6.000000000000000000e+03 1.076000000000000000e+06 -3.524697603526685157e+02
-6.000000000000000000e+03 9.930000000000000000e+05 -3.107342612513051563e+02
-6.000000000000000000e+03 1.126000000000000000e+06 -4.487442857115229344e+02
-6.000000000000000000e+03 1.108000000000000000e+06 -4.301340533098816081e+02
-6.000000000000000000e+03 1.062000000000000000e+06 -1.989620241030900161e+01
-6.000000000000000000e+03 9.980000000000000000e+05 -3.159200209193924138e+02
-6.000000000000000000e+03 1.046000000000000000e+06 -3.250320057367844129e+00
-6.000000000000000000e+03 9.620000000000000000e+05 -2.785575471698113574e+02
-6.000000000000000000e+03 1.156000000000000000e+06 -4.799324528301887085e+02
-6.000000000000000000e+03 1.129000000000000000e+06 -4.518728571425525047e+02
-6.000000000000000000e+03 1.074000000000000000e+06 -3.272227662701443478e+02
-6.000000000000000000e+03 1.099000000000000000e+06 -4.207812904941234819e+02
-6.000000000000000000e+03 1.101000000000000000e+06 -4.228629387784504843e+02
-6.000000000000000000e+03 1.073000000000000000e+06 -3.116725040453365523e+02
-6.000000000000000000e+03 1.157000000000000000e+06 -4.809683018867924602e+02
-6.000000000000000000e+03 1.022000000000000000e+06 -3.379017226333398298e+02
-6.000000000000000000e+03 1.097000000000000000e+06 -4.186717824194442414e+02
-6.000000000000000000e+03 1.130000000000000000e+06 -4.529157142855710845e+02
-6.000000000000000000e+03 1.127000000000000000e+06 -4.497871428558047455e+02
-6.000000000000000000e+03 1.024000000000000000e+06 -3.373878276800650156e+02
-6.000000000000000000e+03 9.640000000000000000e+05 -2.806330188679245339e+02
-6.000000000000000000e+03 9.660000000000000000e+05 -2.827084905660377672e+02
-6.000000000000000000e+03 9.490000000000000000e+05 -2.650675042158516135e+02
-6.000000000000000000e+03 1.071000000000000000e+06 -2.740315775393595459e+02
-6.000000000000000000e+03 9.340000000000000000e+05 -2.494921060842433747e+02
-6.000000000000000000e+03 1.006000000000000000e+06 -3.242392539081023983e+02
-6.000000000000000000e+03 9.440000000000000000e+05 -2.598655267423014834e+02
-6.000000000000000000e+03 9.950000000000000000e+05 -3.128095193859401206e+02
-6.000000000000000000e+03 1.174000000000000000e+06 -4.986310169491525244e+02
-6.000000000000000000e+03 1.172000000000000000e+06 -4.965462711864406629e+02
-6.000000000000000000e+03 1.070000000000000000e+06 -2.518556092394306347e+02
-6.000000000000000000e+03 1.159000000000000000e+06 -4.830400000000000205e+02
-6.000000000000000000e+03 1.026000000000000000e+06 -3.350353832518189279e+02
-6.000000000000000000e+03 1.107000000000000000e+06 -4.290996031815087122e+02
-6.000000000000000000e+03 1.098000000000000000e+06 -4.197281453024839379e+02
-6.000000000000000000e+03 1.047000000000000000e+06 2.394967345646853119e+01
-6.000000000000000000e+03 1.096000000000000000e+06 -4.176129135173892450e+02
-6.000000000000000000e+03 1.158000000000000000e+06 -4.820041509433962688e+02
-6.000000000000000000e+03 9.610000000000000000e+05 -2.775196909090909116e+02
-6.000000000000000000e+03 1.162000000000000000e+06 -4.861545454545454845e+02
-6.000000000000000000e+03 9.960000000000000000e+05 -3.138463634649629626e+02
-6.000000000000000000e+03 1.014000000000000000e+06 -3.323910728983128138e+02
-6.000000000000000000e+03 1.072000000000000000e+06 -2.939832174322940546e+02
-6.000000000000000000e+03 1.100000000000000000e+06 -4.218305369559276414e+02
-6.000000000000000000e+03 1.175000000000000000e+06 -4.996733898305084836e+02
-6.000000000000000000e+03 9.370000000000000000e+05 -2.526044305772230985e+02
-6.000000000000000000e+03 1.128000000000000000e+06 -4.508299999993583924e+02
-6.000000000000000000e+03 1.161000000000000000e+06 -4.851163636363636442e+02
-6.000000000000000000e+03 1.116000000000000000e+06 -4.384299977555085661e+02
-6.000000000000000000e+03 9.300000000000000000e+05 -2.453421052631578902e+02
-6.000000000000000000e+03 1.023000000000000000e+06 -3.378423574207329239e+02
-6.000000000000000000e+03 1.112000000000000000e+06 -4.342866419252414403e+02
-6.000000000000000000e+03 1.061000000000000000e+06 9.370513792602991998e+00
-6.000000000000000000e+03 1.005000000000000000e+06 -3.232122113819553419e+02
-6.000000000000000000e+03 1.125000000000000000e+06 -4.477158536528889385e+02
-6.000000000000000000e+03 9.650000000000000000e+05 -2.816707547169811505e+02
-6.000000000000000000e+03 1.115000000000000000e+06 -4.374036800589878453e+02
-6.000000000000000000e+03 1.048000000000000000e+06 4.913706893235388407e+01
-6.000000000000000000e+03 9.600000000000000000e+05 -2.764815090909090713e+02
