   9.9200000e+05   1.0000000e+04  -3.0969684e+02
   9.9200000e+05   1.1000000e+04  -3.0969684e+02
   9.9200000e+05   1.2000000e+04  -3.0969684e+02
   9.9200000e+05   1.3000000e+04  -3.0969684e+02
   9.9200000e+05   1.4000000e+04  -3.0969684e+02
   9.9200000e+05   1.5000000e+04  -3.0969684e+02
   9.9200000e+05   1.6000000e+04  -3.0969684e+02
   9.9200000e+05   1.7000000e+04  -3.0969684e+02
   9.9200000e+05   1.8000000e+04  -3.0969684e+02
   9.9200000e+05   1.9000000e+04  -3.0969684e+02
   9.9200000e+05   2.0000000e+04  -3.0969684e+02
   9.9200000e+05   2.1000000e+04  -3.0969684e+02
   9.9200000e+05   2.2000000e+04  -3.0969684e+02
   9.9200000e+05   2.3000000e+04  -3.0969684e+02
   9.9200000e+05   2.4000000e+04  -3.0969684e+02
   9.9200000e+05   2.5000000e+04  -3.0969684e+02
   9.9300000e+05  -2.5000000e+04  -3.1073475e+02
   9.9300000e+05  -2.4000000e+04  -3.1073475e+02
   9.9300000e+05  -2.3000000e+04  -3.1073475e+02
   9.9300000e+05  -2.2000000e+04  -3.1073475e+02
   9.9300000e+05  -2.1000000e+04  -3.1073475e+02
   9.9300000e+05  -2.0000000e+04  -3.1073475e+02
   9.9300000e+05  -1.9000000e+04  -3.1073475e+02
   9.9300000e+05  -1.8000000e+04  -3.1073475e+02
   9.9300000e+05  -1.7000000e+04  -3.1073475e+02
   9.9300000e+05  -1.6000000e+04  -3.1073475e+02
   9.9300000e+05  -1.5000000e+04  -3.1073475e+02
   9.9300000e+05  -1.4000000e+04  -3.1073475e+02
   9.9300000e+05  -1.3000000e+04  -3.1073475e+02
   9.9300000e+05  -1.2000000e+04  -3.1073475e+02
   9.9300000e+05  -1.1000000e+04  -3.1073475e+02
   9.9300000e+05  -1.0000000e+04  -3.1073475e+02
   9.9300000e+05  -9.0000000e+03  -3.1073475e+02
   9.9300000e+05  -8.0000000e+03  -3.1073475e+02
   9.9300000e+05  -7.0000000e+03  -3.1073475e+02
   9.9300000e+05  -6.0000000e+03  -3.1073475e+02
   9.9300000e+05  -5.0000000e+03  -3.1073475e+02
   9.9300000e+05  -4.0000000e+03  -3.1073475e+02
   9.9300000e+05  -3.0000000e+03  -3.1073475e+02
   9.9300000e+05  -2.0000000e+03  -3.1073475e+02
   9.9300000e+05  -1.0000000e+03  -3.1073475e+02
   9.9300000e+05   0.0000000e+00  -3.1073475e+02
   9.9300000e+05   1.0000000e+03  -3.1073475e+02
   9.9300000e+05   2.0000000e+03  -3.1073475e+02
   9.9300000e+05   3.0000000e+03  -3.1073475e+02
   9.9300000e+05   4.0000000e+03  -3.1073475e+02
   9.9300000e+05   5.0000000e+03  -3.1073475e+02
   9.9300000e+05   6.0000000e+03  -3.1073475e+02
   9.9300000e+05   7.0000000e+03  -3.1073475e+02
   9.9300000e+05   8.0000000e+03  -3.1073475e+02
   9.9300000e+05   9.0000000e+03  -3.1073475e+02
   9.9300000e+05   1.0000000e+04  -3.1073475e+02
   9.9300000e+05   1.1000000e+04  -3.1073475e+02
   9.9300000e+05   1.2000000e+04  -3.1073475e+02
   9.9300000e+05   1.3000000e+04  -3.1073475e+02
   9.9300000e+05   1.4000000e+04  -3.1073475e+02
   9.9300000e+05   1.5000000e+04  -3.1073475e+02
   9.9300000e+05   1.6000000e+04  -3.1073475e+02
   9.9300000e+05   1.7000000e+04  -3.1073475e+02
   9.9300000e+05   1.8000000e+04  -3.1073475e+02
   9.9300000e+05   1.9000000e+04  -3.1073475e+02
   9.9300000e+05   2.0000000e+04  -3.1073475e+02
   9.9300000e+05   2.1000000e+04  -3.1073475e+02
   9.9300000e+05   2.2000000e+04  -3.1073475e+02
   9.9300000e+05   2.3000000e+04  -3.1073475e+02
   9.9300000e+05   2.4000000e+04  -3.1073475e+02
   9.9300000e+05   2.5000000e+04  -3.1073475e+02
   9.9400000e+05  -2.5000000e+04  -3.1177240e+02
   9.9400000e+05  -2.4000000e+04  -3.1177240e+02
   9.9400000e+05  -2.3000000e+04  -3.1177240e+02
   9.9400000e+05  -2.2000000e+04  -3.1177240e+02
   9.9400000e+05  -2.1000000e+04  -3.1177240e+02
   9.9400000e+05  -2.0000000e+04  -3.1177240e+02
   9.9400000e+05  -1.9000000e+04  -3.1177240e+02
   9.9400000e+05  -1.8000000e+04  -3.1177240e+02
   9.9400000e+05  -1.7000000e+04  -3.1177240e+02
   9.9400000e+05  -1.6000000e+04  -3.1177240e+02
   9.9400000e+05  -1.5000000e+04  -3.1177240e+02
   9.9400000e+05  -1.4000000e+04  -3.1177240e+02
   9.9400000e+05  -1.3000000e+04  -3.1177240e+02
   9.9400000e+05  -1.2000000e+04  -3.1177240e+02
   9.9400000e+05  -1.1000000e+04  -3.1177240e+02
   9.9400000e+05  -1.0000000e+04  -3.1177240e+02
   9.9400000e+05  -9.0000000e+03  -3.1177240e+02
   9.9400000e+05  -8.0000000e+03  -3.1177240e+02
   9.9400000e+05  -7.0000000e+03  -3.1177240e+02
   9.9400000e+05  -6.0000000e+03  -3.1177240e+02
   9.9400000e+05  -5.0000000e+03  -3.1177240e+02
   9.9400000e+05  -4.0000000e+03  -3.1177240e+02
   9.9400000e+05  -3.0000000e+03  -3.1177240e+02
   9.9400000e+05  -2.0000000e+03  -3.1177240e+02
   9.9400000e+05  -1.0000000e+03  -3.1177240e+02
   9.9400000e+05   0.0000000e+00  -3.1177240e+02
   9.9400000e+05   1.0000000e+03  -3.1177240e+02
   9.9400000e+05   2.0000000e+03  -3.1177240e+02
   9.9400000e+05   3.0000000e+03  -3.1177240e+02
   9.9400000e+05   4.0000000e+03  -3.1177240e+02
   9.9400000e+05   5.0000000e+03  -3.1177240e+02
   9.9400000e+05   6.0000000e+03  -3.1177240e+02
   9.9400000e+05   7.0000000e+03  -3.1177240e+02
   9.9400000e+05   8.0000000e+03  -3.1177240e+02
   9.9400000e+05   9.0000000e+03  -3.1177240e+02
   9.9400000e+05   1.0000000e+04  -3.1177240e+02
   9.9400000e+05   1.1000000e+04  -3.1177240e+02
   9.9400000e+05   1.2000000e+04  -3.1177240e+02
   9.9400000e+05   1.3000000e+04  -3.1177240e+02
   9.9400000e+05   1.4000000e+04  -3.1177240e+02
   9.9400000e+05   1.5000000e+04  -3.1177240e+02
   9.9400000e+05   1.6000000e+04  -3.1177240e+02
   9.9400000e+05   1.7000000e+04  -3.1177240e+02
   9.9400000e+05   1.8000000e+04  -3.1177240e+02
   9.9400000e+05   1.9000000e+04  -3.1177240e+02
   9.9400000e+05   2.0000000e+04  -3.1177240e+02
   9.9400000e+05   2.1000000e+04  -3.1177240e+02
   9.9400000e+05   2.2000000e+04  -3.1177240e+02
   9.9400000e+05   2.3000000e+04  -3.1177240e+02
   9.9400000e+05   2.4000000e+04  -3.1177240e+02
   9.9400000e+05   2.5000000e+04  -3.1177240e+02
   9.9500000e+05  -2.5000000e+04  -3.1280929e+02
   9.9500000e+05  -2.4000000e+04  -3.1280929e+02
   9.9500000e+05  -2.3000000e+04  -3.1280929e+02
   9.9500000e+05  -2.2000000e+04  -3.1280929e+02
   9.9500000e+05  -2.1000000e+04  -3.1280929e+02
   9.9500000e+05  -2.0000000e+04  -3.1280929e+02
   9.9500000e+05  -1.9000000e+04  -3.1280929e+02
   9.9500000e+05  -1.8000000e+04  -3.1280929e+02
   9.9500000e+05  -1.7000000e+04  -3.1280929e+02
   9.9500000e+05  -1.6000000e+04  -3.1280929e+02
   9.9500000e+05  -1.5000000e+04  -3.1280929e+02
   9.9500000e+05  -1.4000000e+04  -3.1280929e+02
   9.9500000e+05  -1.3000000e+04  -3.1280929e+02
   9.9500000e+05  -1.2000000e+04  -3.1280929e+02
   9.9500000e+05  -1.1000000e+04  -3.1280929e+02
   9.9500000e+05  -1.0000000e+04  -3.1280929e+02
   9.9500000e+05  -9.0000000e+03  -3.1280929e+02
   9.9500000e+05  -8.0000000e+03  -3.1280929e+02
   9.9500000e+05  -7.0000000e+03  -3.1280929e+02
   9.9500000e+05  -6.0000000e+03  -3.1280929e+02
   9.9500000e+05  -5.0000000e+03  -3.1280929e+02
   9.9500000e+05  -4.0000000e+03  -3.1280929e+02
   9.9500000e+05  -3.0000000e+03  -3.1280929e+02
   9.9500000e+05  -2.0000000e+03  -3.1280929e+02
   9.9500000e+05  -1.0000000e+03  -3.1280929e+02
   9.9500000e+05   0.0000000e+00  -3.1280929e+02
   9.9500000e+05   1.0000000e+03  -3.1280929e+02
   9.9500000e+05   2.0000000e+03  -3.1280929e+02
   9.9500000e+05   3.0000000e+03  -3.1280929e+02
   9.9500000e+05   4.0000000e+03  -3.1280929e+02
   9.9500000e+05   5.0000000e+03  -3.1280929e+02
   9.9500000e+05   6.0000000e+03  -3.1280929e+02
   9.9500000e+05   7.0000000e+03  -3.1280929e+02
   9.9500000e+05   8.0000000e+03  -3.1280929e+02
   9.9500000e+05   9.0000000e+03  -3.1280929e+02
   9.9500000e+05   1.0000000e+04  -3.1280929e+02
   9.9500000e+05   1.1000000e+04  -3.1280929e+02
   9.9500000e+05   1.2000000e+04  -3.1280929e+02
   9.9500000e+05   1.3000000e+04  -3.1280929e+02
   9.9500000e+05   1.4000000e+04  -3.1280929e+02
   9.9500000e+05   1.5000000e+04  -3.1280929e+02
   9.9500000e+05   1.6000000e+04  -3.1280929e+02
   9.9500000e+05   1.7000000e+04  -3.1280929e+02
   9.9500000e+05   1.8000000e+04  -3.1280929e+02
   9.9500000e+05   1.9000000e+04  -3.1280929e+02
   9.9500000e+05   2.0000000e+04  -3.1280929e+02
   9.9500000e+05   2.1000000e+04  -3.1280929e+02
   9.9500000e+05   2.2000000e+04  -3.1280929e+02
   9.9500000e+05   2.3000000e+04  -3.1280929e+02
   9.9500000e+05   2.4000000e+04  -3.1280929e+02
   9.9500000e+05   2.5000000e+04  -3.1280929e+02
   9.9600000e+05  -2.5000000e+04  -3.1384401e+02
   9.9600000e+05  -2.4000000e+04  -3.1384401e+02
   9.9600000e+05  -2.3000000e+04  -3.1384401e+02
   9.9600000e+05  -2.2000000e+04  -3.1384401e+02
   9.9600000e+05  -2.1000000e+04  -3.1384401e+02
   9.9600000e+05  -2.0000000e+04  -3.1384401e+02
   9.9600000e+05  -1.9000000e+04  -3.1384401e+02
   9.9600000e+05  -1.8000000e+04  -3.1384401e+02
   9.9600000e+05  -1.7000000e+04  -3.1384401e+02
   9.9600000e+05  -1.6000000e+04  -3.1384401e+02
   9.9600000e+05  -1.5000000e+04  -3.1384401e+02
   9.9600000e+05  -1.4000000e+04  -3.1384401e+02
   9.9600000e+05  -1.3000000e+04  -3.1384401e+02
   9.9600000e+05  -1.2000000e+04  -3.1384401e+02
   9.9600000e+05  -1.1000000e+04  -3.1384401e+02
   9.9600000e+05  -1.0000000e+04  -3.1384401e+02
   9.9600000e+05  -9.0000000e+03  -3.1384401e+02
   9.9600000e+05  -8.0000000e+03  -3.1384401e+02
   9.9600000e+05  -7.0000000e+03  -3.1384401e+02
   9.9600000e+05  -6.0000000e+03  -3.1384401e+02
   9.9600000e+05  -5.0000000e+03  -3.1384401e+02
   9.9600000e+05  -4.0000000e+03  -3.1384401e+02
   9.9600000e+05  -3.0000000e+03  -3.1384401e+02
   9.9600000e+05  -2.0000000e+03  -3.1384401e+02
   9.9600000e+05  -1.0000000e+03  -3.1384401e+02
   9.9600000e+05   0.0000000e+00  -3.1384401e+02
   9.9600000e+05   1.0000000e+03  -3.1384401e+02
   9.9600000e+05   2.0000000e+03  -3.1384401e+02
   9.9600000e+05   3.0000000e+03  -3.1384401e+02
   9.9600000e+05   4.0000000e+03  -3.1384401e+02
   9.9600000e+05   5.0000000e+03  -3.1384401e+02
   9.9600000e+05   6.0000000e+03  -3.1384401e+02
   9.9600000e+05   7.0000000e+03  -3.1384401e+02
   9.9600000e+05   8.0000000e+03  -3.1384401e+02
   9.9600000e+05   9.0000000e+03  -3.1384401e+02
   9.9600000e+05   1.0000000e+04  -3.1384401e+02
   9.9600000e+05   1.1000000e+04  -3.1384401e+02
   9.9600000e+05   1.2000000e+04  -3.1384401e+02
   9.9600000e+05   1.3000000e+04  -3.1384401e+02
   9.9600000e+05   1.4000000e+04  -3.1384401e+02
   9.9600000e+05   1.5000000e+04  -3.1384401e+02
   9.9600000e+05   1.6000000e+04  -3.1384401e+02
   9.9600000e+05   1.7000000e+04  -3.1384401e+02
   9.9600000e+05   1.8000000e+04  -3.1384401e+02
   9.9600000e+05   1.9000000e+04  -3.1384401e+02
   9.9600000e+05   2.0000000e+04  -3.1384401e+02
   9.9600000e+05   2.1000000e+04  -3.1384401e+02
   9.9600000e+05   2.2000000e+04  -3.1384401e+02
   9.9600000e+05   2.3000000e+04  -3.1384401e+02
   9.9600000e+05   2.4000000e+04  -3.1384401e+02
   9.9600000e+05   2.5000000e+04  -3.1384401e+02
   9.9700000e+05  -2.5000000e+04  -3.1487898e+02
   9.9700000e+05  -2.4000000e+04  -3.1487898e+02
   9.9700000e+05  -2.3000000e+04  -3.1487898e+02
   9.9700000e+05  -2.2000000e+04  -3.1487898e+02
   9.9700000e+05  -2.1000000e+04  -3.1487898e+02
   9.9700000e+05  -2.0000000e+04  -3.1487898e+02
   9.9700000e+05  -1.9000000e+04  -3.1487898e+02
   9.9700000e+05  -1.8000000e+04  -3.1487898e+02
   9.9700000e+05  -1.7000000e+04  -3.1487898e+02
   9.9700000e+05  -1.6000000e+04  -3.1487898e+02
   9.9700000e+05  -1.5000000e+04  -3.1487898e+02
   9.9700000e+05  -1.4000000e+04  -3.1487898e+02
   9.9700000e+05  -1.3000000e+04  -3.1487898e+02
   9.9700000e+05  -1.2000000e+04  -3.1487898e+02
   9.9700000e+05  -1.1000000e+04  -3.1487898e+02
   9.9700000e+05  -1.0000000e+04  -3.1487898e+02
   9.9700000e+05  -9.0000000e+03  -3.1487898e+02
   9.9700000e+05  -8.0000000e+03  -3.1487898e+02
   9.9700000e+05  -7.0000000e+03  -3.1487898e+02
   9.9700000e+05  -6.0000000e+03  -3.1487898e+02
   9.9700000e+05  -5.0000000e+03  -3.1487898e+02
   9.9700000e+05  -4.0000000e+03  -3.1487898e+02
   9.9700000e+05  -3.0000000e+03  -3.1487898e+02
   9.9700000e+05  -2.0000000e+03  -3.1487898e+02
   9.9700000e+05  -1.0000000e+03  -3.1487898e+02
   9.9700000e+05   0.0000000e+00  -3.1487898e+02
   9.9700000e+05   1.0000000e+03  -3.1487898e+02
   9.9700000e+05   2.0000000e+03  -3.1487898e+02
   9.9700000e+05   3.0000000e+03  -3.1487898e+02
   9.9700000e+05   4.0000000e+03  -3.1487898e+02
   9.9700000e+05   5.0000000e+03  -3.1487898e+02
   9.9700000e+05   6.0000000e+03  -3.1487898e+02
   9.9700000e+05   7.0000000e+03  -3.1487898e+02
   9.9700000e+05   8.0000000e+03  -3.1487898e+02
   9.9700000e+05   9.0000000e+03  -3.1487898e+02
   9.9700000e+05   1.0000000e+04  -3.1487898e+02
   9.9700000e+05   1.1000000e+04  -3.1487898e+02
   9.9700000e+05   1.2000000e+04  -3.1487898e+02
   9.9700000e+05   1.3000000e+04  -3.1487898e+02
   9.9700000e+05   1.4000000e+04  -3.1487898e+02
   9.9700000e+05   1.5000000e+04  -3.1487898e+02
   9.9700000e+05   1.6000000e+04  -3.1487898e+02
   9.9700000e+05   1.7000000e+04  -3.1487898e+02
   9.9700000e+05   1.8000000e+04  -3.1487898e+02
   9.9700000e+05   1.9000000e+04  -3.1487898e+02
   9.9700000e+05   2.0000000e+04  -3.1487898e+02
   9.9700000e+05   2.1000000e+04  -3.1487898e+02
   9.9700000e+05   2.2000000e+04  -3.1487898e+02
   9.9700000e+05   2.3000000e+04  -3.1487898e+02
   9.9700000e+05   2.4000000e+04  -3.1487898e+02
   9.9700000e+05   2.5000000e+04  -3.1487898e+02
   9.9800000e+05  -2.5000000e+04  -3.1591709e+02
   9.9800000e+05  -2.4000000e+04  -3.1591709e+02
   9.9800000e+05  -2.3000000e+04  -3.1591709e+02
   9.9800000e+05  -2.2000000e+04  -3.1591709e+02
   9.9800000e+05  -2.1000000e+04  -3.1591709e+02
   9.9800000e+05  -2.0000000e+04  -3.1591709e+02
   9.9800000e+05  -1.9000000e+04  -3.1591709e+02
   9.9800000e+05  -1.8000000e+04  -3.1591709e+02
   9.9800000e+05  -1.7000000e+04  -3.1591709e+02
   9.9800000e+05  -1.6000000e+04  -3.1591709e+02
   9.9800000e+05  -1.5000000e+04  -3.1591709e+02
   9.9800000e+05  -1.4000000e+04  -3.1591709e+02
   9.9800000e+05  -1.3000000e+04  -3.1591709e+02
   9.9800000e+05  -1.2000000e+04  -3.1591709e+02
   9.9800000e+05  -1.1000000e+04  -3.1591709e+02
   9.9800000e+05  -1.0000000e+04  -3.1591709e+02
   9.9800000e+05  -9.0000000e+03  -3.1591709e+02
   9.9800000e+05  -8.0000000e+03  -3.1591709e+02
   9.9800000e+05  -7.0000000e+03  -3.1591709e+02
   9.9800000e+05  -6.0000000e+03  -3.1591709e+02
   9.9800000e+05  -5.0000000e+03  -3.1591709e+02
   9.9800000e+05  -4.0000000e+03  -3.1591709e+02
   9.9800000e+05  -3.0000000e+03  -3.1591709e+02
   9.9800000e+05  -2.0000000e+03  -3.1591709e+02
   9.9800000e+05  -1.0000000e+03  -3.1591709e+02
   9.9800000e+05   0.0000000e+00  -3.1591709e+02
   9.9800000e+05   1.0000000e+03  -3.1591709e+02
   9.9800000e+05   2.0000000e+03  -3.1591709e+02
   9.9800000e+05   3.0000000e+03  -3.1591709e+02
   9.9800000e+05   4.0000000e+03  -3.1591709e+02
   9.9800000e+05   5.0000000e+03  -3.1591709e+02
   9.9800000e+05   6.0000000e+03  -3.1591709e+02
   9.9800000e+05   7.0000000e+03  -3.1591709e+02
   9.9800000e+05   8.0000000e+03  -3.1591709e+02
   9.9800000e+05   9.0000000e+03  -3.1591709e+02
   9.9800000e+05   1.0000000e+04  -3.1591709e+02
   9.9800000e+05   1.1000000e+04  -3.1591709e+02
   9.9800000e+05   1.2000000e+04  -3.1591709e+02
   9.9800000e+05   1.3000000e+04  -3.1591709e+02
   9.9800000e+05   1.4000000e+04  -3.1591709e+02
   9.9800000e+05   1.5000000e+04  -3.1591709e+02
   9.9800000e+05   1.6000000e+04  -3.1591709e+02
   9.9800000e+05   1.7000000e+04  -3.1591709e+02
   9.9800000e+05   1.8000000e+04  -3.1591709e+02
   9.9800000e+05   1.9000000e+04  -3.1591709e+02
   9.9800000e+05   2.0000000e+04  -3.1591709e+02
   9.9800000e+05   2.1000000e+04  -3.1591709e+02
   9.9800000e+05   2.2000000e+04  -3.1591709e+02
   9.9800000e+05   2.3000000e+04  -3.1591709e+02
   9.9800000e+05   2.4000000e+04  -3.1591709e+02
   9.9800000e+05   2.5000000e+04  -3.1591709e+02
   9.9900000e+05  -2.5000000e+04  -3.1696173e+02
   9.9900000e+05  -2.4000000e+04  -3.1696173e+02
   9.9900000e+05  -2.3000000e+04  -3.1696173e+02
   9.9900000e+05  -2.2000000e+04  -3.1696173e+02
   9.9900000e+05  -2.1000000e+04  -3.1696173e+02
   9.9900000e+05  -2.0000000e+04  -3.1696173e+02
   9.9900000e+05  -1.9000000e+04  -3.1696173e+02
   9.9900000e+05  -1.8000000e+04  -3.1696173e+02
   9.9900000e+05  -1.7000000e+04  -3.1696173e+02
   9.9900000e+05  -1.6000000e+04  -3.1696173e+02
   9.9900000e+05  -1.5000000e+04  -3.1696173e+02
   9.9900000e+05  -1.4000000e+04  -3.1696173e+02
   9.9900000e+05  -1.3000000e+04  -3.1696173e+02
   9.9900000e+05  -1.2000000e+04  -3.1696173e+02
   9.9900000e+05  -1.1000000e+04  -3.1696173e+02
   9.9900000e+05  -1.0000000e+04  -3.1696173e+02
   9.9900000e+05  -9.0000000e+03  -3.1696173e+02
   9.9900000e+05  -8.0000000e+03  -3.1696173e+02
   9.9900000e+05  -7.0000000e+03  -3.1696173e+02
   9.9900000e+05  -6.0000000e+03  -3.1696173e+02
   9.9900000e+05  -5.0000000e+03  -3.1696173e+02
   9.9900000e+05  -4.0000000e+03  -3.1696173e+02
   9.9900000e+05  -3.0000000e+03  -3.1696173e+02
   9.9900000e+05  -2.0000000e+03  -3.1696173e+02
   9.9900000e+05  -1.0000000e+03  -3.1696173e+02
   9.9900000e+05   0.0000000e+00  -3.1696173e+02
   9.9900000e+05   1.0000000e+03  -3.1696173e+02
   9.9900000e+05   2.0000000e+03  -3.1696173e+02
   9.9900000e+05   3.0000000e+03  -3.1696173e+02
   9.9900000e+05   4.0000000e+03  -3.1696173e+02
   9.9900000e+05   5.0000000e+03  -3.1696173e+02
   9.9900000e+05   6.0000000e+03  -3.1696173e+02
   9.9900000e+05   7.0000000e+03  -3.1696173e+02
   9.9900000e+05   8.0000000e+03  -3.1696173e+02
   9.9900000e+05   9.0000000e+03  -3.1696173e+02
   9.9900000e+05   1.0000000e+04  -3.1696173e+02
   9.9900000e+05   1.1000000e+04  -3.1696173e+02
   9.9900000e+05   1.2000000e+04  -3.1696173e+02
   9.9900000e+05   1.3000000e+04  -3.1696173e+02
   9.9900000e+05   1.4000000e+04  -3.1696173e+02
   9.9900000e+05   1.5000000e+04  -3.1696173e+02
   9.9900000e+05   1.6000000e+04  -3.1696173e+02
   9.9900000e+05   1.7000000e+04  -3.1696173e+02
   9.9900000e+05   1.8000000e+04  -3.1696173e+02
   9.9900000e+05   1.9000000e+04  -3.1696173e+02
   9.9900000e+05   2.0000000e+04  -3.1696173e+02
   9.9900000e+05   2.1000000e+04  -3.1696173e+02
   9.9900000e+05   2.2000000e+04  -3.1696173e+02
   9.9900000e+05   2.3000000e+04  -3.1696173e+02
   9.9900000e+05   2.4000000e+04  -3.1696173e+02
   9.9900000e+05   2.5000000e+04  -3.1696173e+02
   1.0000000e+06  -2.5000000e+04  -3.1801541e+02
   1.0000000e+06  -2.4000000e+04  -3.1801541e+02
   1.0000000e+06  -2.3000000e+04  -3.1801541e+02
   1.0000000e+06  -2.2000000e+04  -3.1801541e+02
   1.0000000e+06  -2.1000000e+04  -3.1801541e+02
   1.0000000e+06  -2.0000000e+04  -3.1801541e+02
   1.0000000e+06  -1.9000000e+04  -3.1801541e+02
   1.0000000e+06  -1.8000000e+04  -3.1801541e+02
   1.0000000e+06  -1.7000000e+04  -3.1801541e+02
   1.0000000e+06  -1.6000000e+04  -3.1801541e+02
   1.0000000e+06  -1.5000000e+04  -3.1801541e+02
   1.0000000e+06  -1.4000000e+04  -3.1801541e+02
   1.0000000e+06  -1.3000000e+04  -3.1801541e+02
   1.0000000e+06  -1.2000000e+04  -3.1801541e+02
   1.0000000e+06  -1.1000000e+04  -3.1801541e+02
   1.0000000e+06  -1.0000000e+04  -3.1801541e+02
   1.0000000e+06  -9.0000000e+03  -3.1801541e+02
   1.0000000e+06  -8.0000000e+03  -3.1801541e+02
   1.0000000e+06  -7.0000000e+03  -3.1801541e+02
   1.0000000e+06  -6.0000000e+03  -3.1801541e+02
   1.0000000e+06  -5.0000000e+03  -3.1801541e+02
   1.0000000e+06  -4.0000000e+03  -3.1801541e+02
   1.0000000e+06  -3.0000000e+03  -3.1801541e+02
   1.0000000e+06  -2.0000000e+03  -3.1801541e+02
   1.0000000e+06  -1.0000000e+03  -3.1801541e+02
   1.0000000e+06   0.0000000e+00  -3.1801541e+02
   1.0000000e+06   1.0000000e+03  -3.1801541e+02
   1.0000000e+06   2.0000000e+03  -3.1801541e+02
   1.0000000e+06   3.0000000e+03  -3.1801541e+02
   1.0000000e+06   4.0000000e+03  -3.1801541e+02
   1.0000000e+06   5.0000000e+03  -3.1801541e+02
   1.0000000e+06   6.0000000e+03  -3.1801541e+02
   1.0000000e+06   7.0000000e+03  -3.1801541e+02
   1.0000000e+06   8.0000000e+03  -3.1801541e+02
   1.0000000e+06   9.0000000e+03  -3.1801541e+02
   1.0000000e+06   1.0000000e+04  -3.1801541e+02
   1.0000000e+06   1.1000000e+04  -3.1801541e+02
   1.0000000e+06   1.2000000e+04  -3.1801541e+02
   1.0000000e+06   1.3000000e+04  -3.1801541e+02
   1.0000000e+06   1.4000000e+04  -3.1801541e+02
   1.0000000e+06   1.5000000e+04  -3.1801541e+02
   1.0000000e+06   1.6000000e+04  -3.1801541e+02
   1.0000000e+06   1.7000000e+04  -3.1801541e+02
   1.0000000e+06   1.8000000e+04  -3.1801541e+02
   1.0000000e+06   1.9000000e+04  -3.1801541e+02
   1.0000000e+06   2.0000000e+04  -3.1801541e+02
   1.0000000e+06   2.1000000e+04  -3.1801541e+02
   1.0000000e+06   2.2000000e+04  -3.1801541e+02
   1.0000000e+06   2.3000000e+04  -3.1801541e+02
   1.0000000e+06   2.4000000e+04  -3.1801541e+02
   1.0000000e+06   2.5000000e+04  -3.1801541e+02
   1.0010000e+06  -2.5000000e+04  -3.1907163e+02
   1.0010000e+06  -2.4000000e+04  -3.1907163e+02
   1.0010000e+06  -2.3000000e+04  -3.1907163e+02
   1.0010000e+06  -2.2000000e+04  -3.1907163e+02
   1.0010000e+06  -2.1000000e+04  -3.1907163e+02
   1.0010000e+06  -2.0000000e+04  -3.1907163e+02
   1.0010000e+06  -1.9000000e+04  -3.1907163e+02
   1.0010000e+06  -1.8000000e+04  -3.1907163e+02
   1.0010000e+06  -1.7000000e+04  -3.1907163e+02
   1.0010000e+06  -1.6000000e+04  -3.1907163e+02
   1.0010000e+06  -1.5000000e+04  -3.1907163e+02
   1.0010000e+06  -1.4000000e+04  -3.1907163e+02
   1.0010000e+06  -1.3000000e+04  -3.1907163e+02
   1.0010000e+06  -1.2000000e+04  -3.1907163e+02
   1.0010000e+06  -1.1000000e+04  -3.1907163e+02
   1.0010000e+06  -1.0000000e+04  -3.1907163e+02
   1.0010000e+06  -9.0000000e+03  -3.1907163e+02
   1.0010000e+06  -8.0000000e+03  -3.1907163e+02
   1.0010000e+06  -7.0000000e+03  -3.1907163e+02
   1.0010000e+06  -6.0000000e+03  -3.1907163e+02
   1.0010000e+06  -5.0000000e+03  -3.1907163e+02
   1.0010000e+06  -4.0000000e+03  -3.1907163e+02
   1.0010000e+06  -3.0000000e+03  -3.1907163e+02
   1.0010000e+06  -2.0000000e+03  -3.1907163e+02
   1.0010000e+06  -1.0000000e+03  -3.1907163e+02
   1.0010000e+06   0.0000000e+00  -3.1907163e+02
   1.0010000e+06   1.0000000e+03  -3.1907163e+02
   1.0010000e+06   2.0000000e+03  -3.1907163e+02
   1.0010000e+06   3.0000000e+03  -3.1907163e+02
   1.0010000e+06   4.0000000e+03  -3.1907163e+02
   1.0010000e+06   5.0000000e+03  -3.1907163e+02
   1.0010000e+06   6.0000000e+03  -3.1907163e+02
   1.0010000e+06   7.0000000e+03  -3.1907163e+02
   1.0010000e+06   8.0000000e+03  -3.1907163e+02
   1.0010000e+06   9.0000000e+03  -3.1907163e+02
   1.0010000e+06   1.0000000e+04  -3.1907163e+02
   1.0010000e+06   1.1000000e+04  -3.1907163e+02
   1.0010000e+06   1.2000000e+04  -3.1907163e+02
   1.0010000e+06   1.3000000e+04  -3.1907163e+02
   1.0010000e+06   1.4000000e+04  -3.1907163e+02
   1.0010000e+06   1.5000000e+04  -3.1907163e+02
   1.0010000e+06   1.6000000e+04  -3.1907163e+02
   1.0010000e+06   1.7000000e+04  -3.1907163e+02
   1.0010000e+06   1.8000000e+04  -3.1907163e+02
   1.0010000e+06   1.9000000e+04  -3.1907163e+02
   1.0010000e+06   2.0000000e+04  -3.1907163e+02
   1.0010000e+06   2.1000000e+04  -3.1907163e+02
   1.0010000e+06   2.2000000e+04  -3.1907163e+02
   1.0010000e+06   2.3000000e+04  -3.1907163e+02
   1.0010000e+06   2.4000000e+04  -3.1907163e+02
   1.0010000e+06   2.5000000e+04  -3.1907163e+02
   1.0020000e+06  -2.5000000e+04  -3.2012272e+02
   1.0020000e+06  -2.4000000e+04  -3.2012272e+02
   1.0020000e+06  -2.3000000e+04  -3.2012272e+02
   1.0020000e+06  -2.2000000e+04  -3.2012272e+02
   1.0020000e+06  -2.1000000e+04  -3.2012272e+02
   1.0020000e+06  -2.0000000e+04  -3.2012272e+02
   1.0020000e+06  -1.9000000e+04  -3.2012272e+02
   1.0020000e+06  -1.8000000e+04  -3.2012272e+02
   1.0020000e+06  -1.7000000e+04  -3.2012272e+02
   1.0020000e+06  -1.6000000e+04  -3.2012272e+02
   1.0020000e+06  -1.5000000e+04  -3.2012272e+02
   1.0020000e+06  -1.4000000e+04  -3.2012272e+02
   1.0020000e+06  -1.3000000e+04  -3.2012272e+02
   1.0020000e+06  -1.2000000e+04  -3.2012272e+02
   1.0020000e+06  -1.1000000e+04  -3.2012272e+02
   1.0020000e+06  -1.0000000e+04  -3.2012272e+02
   1.0020000e+06  -9.0000000e+03  -3.2012272e+02
   1.0020000e+06  -8.0000000e+03  -3.2012272e+02
   1.0020000e+06  -7.0000000e+03  -3.2012272e+02
   1.0020000e+06  -6.0000000e+03  -3.2012272e+02
   1.0020000e+06  -5.0000000e+03  -3.2012272e+02
   1.0020000e+06  -4.0000000e+03  -3.2012272e+02
   1.0020000e+06  -3.0000000e+03  -3.2012272e+02
   1.0020000e+06  -2.0000000e+03  -3.2012272e+02
   1.0020000e+06  -1.0000000e+03  -3.2012272e+02
   1.0020000e+06   0.0000000e+00  -3.2012272e+02
   1.0020000e+06   1.0000000e+03  -3.2012272e+02
   1.0020000e+06   2.0000000e+03  -3.2012272e+02
   1.0020000e+06   3.0000000e+03  -3.2012272e+02
   1.0020000e+06   4.0000000e+03  -3.2012272e+02
   1.0020000e+06   5.0000000e+03  -3.2012272e+02
   1.0020000e+06   6.0000000e+03  -3.2012272e+02
   1.0020000e+06   7.0000000e+03  -3.2012272e+02
   1.0020000e+06   8.0000000e+03  -3.2012272e+02
   1.0020000e+06   9.0000000e+03  -3.2012272e+02
   1.0020000e+06   1.0000000e+04  -3.2012272e+02
   1.0020000e+06   1.1000000e+04  -3.2012272e+02
   1.0020000e+06   1.2000000e+04  -3.2012272e+02
   1.0020000e+06   1.3000000e+04  -3.2012272e+02
   1.0020000e+06   1.4000000e+04  -3.2012272e+02
   1.0020000e+06   1.5000000e+04  -3.2012272e+02
   1.0020000e+06   1.6000000e+04  -3.2012272e+02
   1.0020000e+06   1.7000000e+04  -3.2012272e+02
   1.0020000e+06   1.8000000e+04  -3.2012272e+02
   1.0020000e+06   1.9000000e+04  -3.2012272e+02
   1.0020000e+06   2.0000000e+04  -3.2012272e+02
   1.0020000e+06   2.1000000e+04  -3.2012272e+02
   1.0020000e+06   2.2000000e+04  -3.2012272e+02
   1.0020000e+06   2.3000000e+04  -3.2012272e+02
   1.0020000e+06   2.4000000e+04  -3.2012272e+02
   1.0020000e+06   2.5000000e+04  -3.2012272e+02
   1.0030000e+06  -2.5000000e+04  -3.2116144e+02
   1.0030000e+06  -2.4000000e+04  -3.2116144e+02
   1.0030000e+06  -2.3000000e+04  -3.2116144e+02
   1.0030000e+06  -2.2000000e+04  -3.2116144e+02
   1.0030000e+06  -2.1000000e+04  -3.2116144e+02
   1.0030000e+06  -2.0000000e+04  -3.2116144e+02
   1.0030000e+06  -1.9000000e+04  -3.2116144e+02
   1.0030000e+06  -1.8000000e+04  -3.2116144e+02
   1.0030000e+06  -1.7000000e+04  -3.2116144e+02
   1.0030000e+06  -1.6000000e+04  -3.2116144e+02
   1.0030000e+06  -1.5000000e+04  -3.2116144e+02
   1.0030000e+06  -1.4000000e+04  -3.2116144e+02
   1.0030000e+06  -1.3000000e+04  -3.2116144e+02
   1.0030000e+06  -1.2000000e+04  -3.2116144e+02
   1.0030000e+06  -1.1000000e+04  -3.2116144e+02
   1.0030000e+06  -1.0000000e+04  -3.2116144e+02
   1.0030000e+06  -9.0000000e+03  -3.2116144e+02
   1.0030000e+06  -8.0000000e+03  -3.2116144e+02
   1.0030000e+06  -7.0000000e+03  -3.2116144e+02
   1.0030000e+06  -6.0000000e+03  -3.2116144e+02
   1.0030000e+06  -5.0000000e+03  -3.2116144e+02
   1.0030000e+06  -4.0000000e+03  -3.2116144e+02
   1.0030000e+06  -3.0000000e+03  -3.2116144e+02
   1.0030000e+06  -2.0000000e+03  -3.2116144e+02
   1.0030000e+06  -1.0000000e+03  -3.2116144e+02
   1.0030000e+06   0.0000000e+00  -3.2116144e+02
   1.0030000e+06   1.0000000e+03  -3.2116144e+02
   1.0030000e+06   2.0000000e+03  -3.2116144e+02
   1.0030000e+06   3.0000000e+03  -3.2116144e+02
   1.0030000e+06   4.0000000e+03  -3.2116144e+02
   1.0030000e+06   5.0000000e+03  -3.2116144e+02
   1.0030000e+06   6.0000000e+03  -3.2116144e+02
   1.0030000e+06   7.0000000e+03  -3.2116144e+02
   1.0030000e+06   8.0000000e+03  -3.2116144e+02
   1.0030000e+06   9.0000000e+03  -3.2116144e+02
   1.0030000e+06   1.0000000e+04  -3.2116144e+02
   1.0030000e+06   1.1000000e+04  -3.2116144e+02
   1.0030000e+06   1.2000000e+04  -3.2116144e+02
   1.0030000e+06   1.3000000e+04  -3.2116144e+02
   1.0030000e+06   1.4000000e+04  -3.2116144e+02
   1.0030000e+06   1.5000000e+04  -3.2116144e+02
   1.0030000e+06   1.6000000e+04  -3.2116144e+02
   1.0030000e+06   1.7000000e+04  -3.2116144e+02
   1.0030000e+06   1.8000000e+04  -3.2116144e+02
   1.0030000e+06   1.9000000e+04  -3.2116144e+02
   1.0030000e+06   2.0000000e+04  -3.2116144e+02
   1.0030000e+06   2.1000000e+04  -3.2116144e+02
   1.0030000e+06   2.2000000e+04  -3.2116144e+02
   1.0030000e+06   2.3000000e+04  -3.2116144e+02
   1.0030000e+06   2.4000000e+04  -3.2116144e+02
   1.0030000e+06   2.5000000e+04  -3.2116144e+02
   1.0040000e+06  -2.5000000e+04  -3.2218880e+02
   1.0040000e+06  -2.4000000e+04  -3.2218880e+02
   1.0040000e+06  -2.3000000e+04  -3.2218880e+02
   1.0040000e+06  -2.2000000e+04  -3.2218880e+02
   1.0040000e+06  -2.1000000e+04  -3.2218880e+02
   1.0040000e+06  -2.0000000e+04  -3.2218880e+02
   1.0040000e+06  -1.9000000e+04  -3.2218880e+02
   1.0040000e+06  -1.8000000e+04  -3.2218880e+02
   1.0040000e+06  -1.7000000e+04  -3.2218880e+02
   1.0040000e+06  -1.6000000e+04  -3.2218880e+02
   1.0040000e+06  -1.5000000e+04  -3.2218880e+02
   1.0040000e+06  -1.4000000e+04  -3.2218880e+02
   1.0040000e+06  -1.3000000e+04  -3.2218880e+02
   1.0040000e+06  -1.2000000e+04  -3.2218880e+02
   1.0040000e+06  -1.1000000e+04  -3.2218880e+02
   1.0040000e+06  -1.0000000e+04  -3.2218880e+02
   1.0040000e+06  -9.0000000e+03  -3.2218880e+02
   1.0040000e+06  -8.0000000e+03  -3.2218880e+02
   1.0040000e+06  -7.0000000e+03  -3.2218880e+02
   1.0040000e+06  -6.0000000e+03  -3.2218880e+02
   1.0040000e+06  -5.0000000e+03  -3.2218880e+02
   1.0040000e+06  -4.0000000e+03  -3.2218880e+02
   1.0040000e+06  -3.0000000e+03  -3.2218880e+02
   1.0040000e+06  -2.0000000e+03  -3.2218880e+02
   1.0040000e+06  -1.0000000e+03  -3.2218880e+02
   1.0040000e+06   0.0000000e+00  -3.2218880e+02
   1.0040000e+06   1.0000000e+03  -3.2218880e+02
   1.0040000e+06   2.0000000e+03  -3.2218880e+02
   1.0040000e+06   3.0000000e+03  -3.2218880e+02
   1.0040000e+06   4.0000000e+03  -3.2218880e+02
   1.0040000e+06   5.0000000e+03  -3.2218880e+02
   1.0040000e+06   6.0000000e+03  -3.2218880e+02
   1.0040000e+06   7.0000000e+03  -3.2218880e+02
   1.0040000e+06   8.0000000e+03  -3.2218880e+02
   1.0040000e+06   9.0000000e+03  -3.2218880e+02
   1.0040000e+06   1.0000000e+04  -3.2218880e+02
   1.0040000e+06   1.1000000e+04  -3.2218880e+02
   1.0040000e+06   1.2000000e+04  -3.2218880e+02
   1.0040000e+06   1.3000000e+04  -3.2218880e+02
   1.0040000e+06   1.4000000e+04  -3.2218880e+02
   1.0040000e+06   1.5000000e+04  -3.2218880e+02
   1.0040000e+06   1.6000000e+04  -3.2218880e+02
   1.0040000e+06   1.7000000e+04  -3.2218880e+02
   1.0040000e+06   1.8000000e+04  -3.2218880e+02
   1.0040000e+06   1.9000000e+04  -3.2218880e+02
   1.0040000e+06   2.0000000e+04  -3.2218880e+02
   1.0040000e+06   2.1000000e+04  -3.2218880e+02
   1.0040000e+06   2.2000000e+04  -3.2218880e+02
   1.0040000e+06   2.3000000e+04  -3.2218880e+02
   1.0040000e+06   2.4000000e+04  -3.2218880e+02
   1.0040000e+06   2.5000000e+04  -3.2218880e+02
   1.0050000e+06  -2.5000000e+04  -3.2321305e+02
   1.0050000e+06  -2.4000000e+04  -3.2321305e+02
   1.0050000e+06  -2.3000000e+04  -3.2321305e+02
   1.0050000e+06  -2.2000000e+04  -3.2321305e+02
   1.0050000e+06  -2.1000000e+04  -3.2321305e+02
   1.0050000e+06  -2.0000000e+04  -3.2321305e+02
   1.0050000e+06  -1.9000000e+04  -3.2321305e+02
   1.0050000e+06  -1.8000000e+04  -3.2321305e+02
   1.0050000e+06  -1.7000000e+04  -3.2321305e+02
   1.0050000e+06  -1.6000000e+04  -3.2321305e+02
   1.0050000e+06  -1.5000000e+04  -3.2321305e+02
   1.0050000e+06  -1.4000000e+04  -3.2321305e+02
   1.0050000e+06  -1.3000000e+04  -3.2321305e+02
   1.0050000e+06  -1.2000000e+04  -3.2321305e+02
   1.0050000e+06  -1.1000000e+04  -3.2321305e+02
   1.0050000e+06  -1.0000000e+04  -3.2321305e+02
   1.0050000e+06  -9.0000000e+03  -3.2321305e+02
   1.0050000e+06  -8.0000000e+03  -3.2321305e+02
   1.0050000e+06  -7.0000000e+03  -3.2321305e+02
   1.0050000e+06  -6.0000000e+03  -3.2321305e+02
   1.0050000e+06  -5.0000000e+03  -3.2321305e+02
   1.0050000e+06  -4.0000000e+03  -3.2321305e+02
   1.0050000e+06  -3.0000000e+03  -3.2321305e+02
   1.0050000e+06  -2.0000000e+03  -3.2321305e+02
   1.0050000e+06  -1.0000000e+03  -3.2321305e+02
   1.0050000e+06   0.0000000e+00  -3.2321305e+02
   1.0050000e+06   1.0000000e+03  -3.2321305e+02
   1.0050000e+06   2.0000000e+03  -3.2321305e+02
   1.0050000e+06   3.0000000e+03  -3.2321305e+02
   1.0050000e+06   4.0000000e+03  -3.2321305e+02
   1.0050000e+06   5.0000000e+03  -3.2321305e+02
   1.0050000e+06   6.0000000e+03  -3.2321305e+02
   1.0050000e+06   7.0000000e+03  -3.2321305e+02
   1.0050000e+06   8.0000000e+03  -3.2321305e+02
   1.0050000e+06   9.0000000e+03  -3.2321305e+02
   1.0050000e+06   1.0000000e+04  -3.2321305e+02
   1.0050000e+06   1.1000000e+04  -3.2321305e+02
   1.0050000e+06   1.2000000e+04  -3.2321305e+02
   1.0050000e+06   1.3000000e+04  -3.2321305e+02
   1.0050000e+06   1.4000000e+04  -3.2321305e+02
   1.0050000e+06   1.5000000e+04  -3.2321305e+02
   1.0050000e+06   1.6000000e+04  -3.2321305e+02
   1.0050000e+06   1.7000000e+04  -3.2321305e+02
   1.0050000e+06   1.8000000e+04  -3.2321305e+02
   1.0050000e+06   1.9000000e+04  -3.2321305e+02
   1.0050000e+06   2.0000000e+04  -3.2321305e+02
   1.0050000e+06   2.1000000e+04  -3.2321305e+02
   1.0050000e+06   2.2000000e+04  -3.2321305e+02
   1.0050000e+06   2.3000000e+04  -3.2321305e+02
   1.0050000e+06   2.4000000e+04  -3.2321305e+02
   1.0050000e+06   2.5000000e+04  -3.2321305e+02
   1.0060000e+06  -2.5000000e+04  -3.2424268e+02
   1.0060000e+06  -2.4000000e+04  -3.2424268e+02
   1.0060000e+06  -2.3000000e+04  -3.2424268e+02
   1.0060000e+06  -2.2000000e+04  -3.2424268e+02
   1.0060000e+06  -2.1000000e+04  -3.2424268e+02
   1.0060000e+06  -2.0000000e+04  -3.2424268e+02
   1.0060000e+06  -1.9000000e+04  -3.2424268e+02
   1.0060000e+06  -1.8000000e+04  -3.2424268e+02
   1.0060000e+06  -1.7000000e+04  -3.2424268e+02
   1.0060000e+06  -1.6000000e+04  -3.2424268e+02
   1.0060000e+06  -1.5000000e+04  -3.2424268e+02
   1.0060000e+06  -1.4000000e+04  -3.2424268e+02
   1.0060000e+06  -1.3000000e+04  -3.2424268e+02
   1.0060000e+06  -1.2000000e+04  -3.2424268e+02
   1.0060000e+06  -1.1000000e+04  -3.2424268e+02
   1.0060000e+06  -1.0000000e+04  -3.2424268e+02
   1.0060000e+06  -9.0000000e+03  -3.2424268e+02
   1.0060000e+06  -8.0000000e+03  -3.2424268e+02
   1.0060000e+06  -7.0000000e+03  -3.2424268e+02
   1.0060000e+06  -6.0000000e+03  -3.2424268e+02
   1.0060000e+06  -5.0000000e+03  -3.2424268e+02
   1.0060000e+06  -4.0000000e+03  -3.2424268e+02
   1.0060000e+06  -3.0000000e+03  -3.2424268e+02
   1.0060000e+06  -2.0000000e+03  -3.2424268e+02
   1.0060000e+06  -1.0000000e+03  -3.2424268e+02
   1.0060000e+06   0.0000000e+00  -3.2424268e+02
   1.0060000e+06   1.0000000e+03  -3.2424268e+02
   1.0060000e+06   2.0000000e+03  -3.2424268e+02
   1.0060000e+06   3.0000000e+03  -3.2424268e+02
   1.0060000e+06   4.0000000e+03  -3.2424268e+02
   1.0060000e+06   5.0000000e+03  -3.2424268e+02
   1.0060000e+06   6.0000000e+03  -3.2424268e+02
   1.0060000e+06   7.0000000e+03  -3.2424268e+02
   1.0060000e+06   8.0000000e+03  -3.2424268e+02
   1.0060000e+06   9.0000000e+03  -3.2424268e+02
   1.0060000e+06   1.0000000e+04  -3.2424268e+02
   1.0060000e+06   1.1000000e+04  -3.2424268e+02
   1.0060000e+06   1.2000000e+04  -3.2424268e+02
   1.0060000e+06   1.3000000e+04  -3.2424268e+02
   1.0060000e+06   1.4000000e+04  -3.2424268e+02
   1.0060000e+06   1.5000000e+04  -3.2424268e+02
   1.0060000e+06   1.6000000e+04  -3.2424268e+02
   1.0060000e+06   1.7000000e+04  -3.2424268e+02
   1.0060000e+06   1.8000000e+04  -3.2424268e+02
   1.0060000e+06   1.9000000e+04  -3.2424268e+02
   1.0060000e+06   2.0000000e+04  -3.2424268e+02
   1.0060000e+06   2.1000000e+04  -3.2424268e+02
   1.0060000e+06   2.2000000e+04  -3.2424268e+02
   1.0060000e+06   2.3000000e+04  -3.2424268e+02
   1.0060000e+06   2.4000000e+04  -3.2424268e+02
   1.0060000e+06   2.5000000e+04  -3.2424268e+02
   1.0070000e+06  -2.5000000e+04  -3.2528426e+02
   1.0070000e+06  -2.4000000e+04  -3.2528426e+02
   1.0070000e+06  -2.3000000e+04  -3.2528426e+02
   1.0070000e+06  -2.2000000e+04  -3.2528426e+02
   1.0070000e+06  -2.1000000e+04  -3.2528426e+02
   1.0070000e+06  -2.0000000e+04  -3.2528426e+02
   1.0070000e+06  -1.9000000e+04  -3.2528426e+02
   1.0070000e+06  -1.8000000e+04  -3.2528426e+02
   1.0070000e+06  -1.7000000e+04  -3.2528426e+02
   1.0070000e+06  -1.6000000e+04  -3.2528426e+02
   1.0070000e+06  -1.5000000e+04  -3.2528426e+02
   1.0070000e+06  -1.4000000e+04  -3.2528426e+02
   1.0070000e+06  -1.3000000e+04  -3.2528426e+02
   1.0070000e+06  -1.2000000e+04  -3.2528426e+02
   1.0070000e+06  -1.1000000e+04  -3.2528426e+02
   1.0070000e+06  -1.0000000e+04  -3.2528426e+02
   1.0070000e+06  -9.0000000e+03  -3.2528426e+02
   1.0070000e+06  -8.0000000e+03  -3.2528426e+02
   1.0070000e+06  -7.0000000e+03  -3.2528426e+02
   1.0070000e+06  -6.0000000e+03  -3.2528426e+02
   1.0070000e+06  -5.0000000e+03  -3.2528426e+02
   1.0070000e+06  -4.0000000e+03  -3.2528426e+02
   1.0070000e+06  -3.0000000e+03  -3.2528426e+02
   1.0070000e+06  -2.0000000e+03  -3.2528426e+02
   1.0070000e+06  -1.0000000e+03  -3.2528426e+02
   1.0070000e+06   0.0000000e+00  -3.2528426e+02
   1.0070000e+06   1.0000000e+03  -3.2528426e+02
   1.0070000e+06   2.0000000e+03  -3.2528426e+02
   1.0070000e+06   3.0000000e+03  -3.2528426e+02
   1.0070000e+06   4.0000000e+03  -3.2528426e+02
   1.0070000e+06   5.0000000e+03  -3.2528426e+02
   1.0070000e+06   6.0000000e+03  -3.2528426e+02
   1.0070000e+06   7.0000000e+03  -3.2528426e+02
   1.0070000e+06   8.0000000e+03  -3.2528426e+02
   1.0070000e+06   9.0000000e+03  -3.2528426e+02
   1.0070000e+06   1.0000000e+04  -3.2528426e+02
   1.0070000e+06   1.1000000e+04  -3.2528426e+02
   1.0070000e+06   1.2000000e+04  -3.2528426e+02
   1.0070000e+06   1.3000000e+04  -3.2528426e+02
   1.0070000e+06   1.4000000e+04  -3.2528426e+02
   1.0070000e+06   1.5000000e+04  -3.2528426e+02
   1.0070000e+06   1.6000000e+04  -3.2528426e+02
   1.0070000e+06   1.7000000e+04  -3.2528426e+02
   1.0070000e+06   1.8000000e+04  -3.2528426e+02
   1.0070000e+06   1.9000000e+04  -3.2528426e+02
   1.0070000e+06   2.0000000e+04  -3.2528426e+02
   1.0070000e+06   2.1000000e+04  -3.2528426e+02
   1.0070000e+06   2.2000000e+04  -3.2528426e+02
   1.0070000e+06   2.3000000e+04  -3.2528426e+02
   1.0070000e+06   2.4000000e+04  -3.2528426e+02
   1.0070000e+06   2.5000000e+04  -3.2528426e+02
   1.0080000e+06  -2.5000000e+04  -3.2633383e+02
   1.0080000e+06  -2.4000000e+04  -3.2633383e+02
   1.0080000e+06  -2.3000000e+04  -3.2633383e+02
   1.0080000e+06  -2.2000000e+04  -3.2633383e+02
   1.0080000e+06  -2.1000000e+04  -3.2633383e+02
   1.0080000e+06  -2.0000000e+04  -3.2633383e+02
   1.0080000e+06  -1.9000000e+04  -3.2633383e+02
   1.0080000e+06  -1.8000000e+04  -3.2633383e+02
   1.0080000e+06  -1.7000000e+04  -3.2633383e+02
   1.0080000e+06  -1.6000000e+04  -3.2633383e+02
   1.0080000e+06  -1.5000000e+04  -3.2633383e+02
   1.0080000e+06  -1.4000000e+04  -3.2633383e+02
   1.0080000e+06  -1.3000000e+04  -3.2633383e+02
   1.0080000e+06  -1.2000000e+04  -3.2633383e+02
   1.0080000e+06  -1.1000000e+04  -3.2633383e+02
   1.0080000e+06  -1.0000000e+04  -3.2633383e+02
   1.0080000e+06  -9.0000000e+03  -3.2633383e+02
   1.0080000e+06  -8.0000000e+03  -3.2633383e+02
   1.0080000e+06  -7.0000000e+03  -3.2633383e+02
   1.0080000e+06  -6.0000000e+03  -3.2633383e+02
   1.0080000e+06  -5.0000000e+03  -3.2633383e+02
   1.0080000e+06  -4.0000000e+03  -3.2633383e+02
   1.0080000e+06  -3.0000000e+03  -3.2633383e+02
   1.0080000e+06  -2.0000000e+03  -3.2633383e+02
   1.0080000e+06  -1.0000000e+03  -3.2633383e+02
   1.0080000e+06   0.0000000e+00  -3.2633383e+02
   1.0080000e+06   1.0000000e+03  -3.2633383e+02
   1.0080000e+06   2.0000000e+03  -3.2633383e+02
   1.0080000e+06   3.0000000e+03  -3.2633383e+02
   1.0080000e+06   4.0000000e+03  -3.2633383e+02
   1.0080000e+06   5.0000000e+03  -3.2633383e+02
   1.0080000e+06   6.0000000e+03  -3.2633383e+02
   1.0080000e+06   7.0000000e+03  -3.2633383e+02
   1.0080000e+06   8.0000000e+03  -3.2633383e+02
   1.0080000e+06   9.0000000e+03  -3.2633383e+02
   1.0080000e+06   1.0000000e+04  -3.2633383e+02
   1.0080000e+06   1.1000000e+04  -3.2633383e+02
   1.0080000e+06   1.2000000e+04  -3.2633383e+02
   1.0080000e+06   1.3000000e+04  -3.2633383e+02
   1.0080000e+06   1.4000000e+04  -3.2633383e+02
   1.0080000e+06   1.5000000e+04  -3.2633383e+02
   1.0080000e+06   1.6000000e+04  -3.2633383e+02
   1.0080000e+06   1.7000000e+04  -3.2633383e+02
   1.0080000e+06   1.8000000e+04  -3.2633383e+02
   1.0080000e+06   1.9000000e+04  -3.2633383e+02
   1.0080000e+06   2.0000000e+04  -3.2633383e+02
   1.0080000e+06   2.1000000e+04  -3.2633383e+02
   1.0080000e+06   2.2000000e+04  -3.2633383e+02
   1.0080000e+06   2.3000000e+04  -3.2633383e+02
   1.0080000e+06   2.4000000e+04  -3.2633383e+02
   1.0080000e+06   2.5000000e+04  -3.2633383e+02
   1.0090000e+06  -2.5000000e+04  -3.2738412e+02
   1.0090000e+06  -2.4000000e+04  -3.2738412e+02
   1.0090000e+06  -2.3000000e+04  -3.2738412e+02
   1.0090000e+06  -2.2000000e+04  -3.2738412e+02
   1.0090000e+06  -2.1000000e+04  -3.2738412e+02
   1.0090000e+06  -2.0000000e+04  -3.2738412e+02
   1.0090000e+06  -1.9000000e+04  -3.2738412e+02
   1.0090000e+06  -1.8000000e+04  -3.2738412e+02
   1.0090000e+06  -1.7000000e+04  -3.2738412e+02
   1.0090000e+06  -1.6000000e+04  -3.2738412e+02
   1.0090000e+06  -1.5000000e+04  -3.2738412e+02
   1.0090000e+06  -1.4000000e+04  -3.2738412e+02
   1.0090000e+06  -1.3000000e+04  -3.2738412e+02
   1.0090000e+06  -1.2000000e+04  -3.2738412e+02
   1.0090000e+06  -1.1000000e+04  -3.2738412e+02
   1.0090000e+06  -1.0000000e+04  -3.2738412e+02
   1.0090000e+06  -9.0000000e+03  -3.2738412e+02
   1.0090000e+06  -8.0000000e+03  -3.2738412e+02
   1.0090000e+06  -7.0000000e+03  -3.2738412e+02
   1.0090000e+06  -6.0000000e+03  -3.2738412e+02
   1.0090000e+06  -5.0000000e+03  -3.2738412e+02
   1.0090000e+06  -4.0000000e+03  -3.2738412e+02
   1.0090000e+06  -3.0000000e+03  -3.2738412e+02
   1.0090000e+06  -2.0000000e+03  -3.2738412e+02
   1.0090000e+06  -1.0000000e+03  -3.2738412e+02
   1.0090000e+06   0.0000000e+00  -3.2738412e+02
   1.0090000e+06   1.0000000e+03  -3.2738412e+02
   1.0090000e+06   2.0000000e+03  -3.2738412e+02
   1.0090000e+06   3.0000000e+03  -3.2738412e+02
   1.0090000e+06   4.0000000e+03  -3.2738412e+02
   1.0090000e+06   5.0000000e+03  -3.2738412e+02
   1.0090000e+06   6.0000000e+03  -3.2738412e+02
   1.0090000e+06   7.0000000e+03  -3.2738412e+02
   1.0090000e+06   8.0000000e+03  -3.2738412e+02
   1.0090000e+06   9.0000000e+03  -3.2738412e+02
   1.0090000e+06   1.0000000e+04  -3.2738412e+02
   1.0090000e+06   1.1000000e+04  -3.2738412e+02
   1.0090000e+06   1.2000000e+04  -3.2738412e+02
   1.0090000e+06   1.3000000e+04  -3.2738412e+02
   1.0090000e+06   1.4000000e+04  -3.2738412e+02
   1.0090000e+06   1.5000000e+04  -3.2738412e+02
   1.0090000e+06   1.6000000e+04  -3.2738412e+02
   1.0090000e+06   1.7000000e+04  -3.2738412e+02
   1.0090000e+06   1.8000000e+04  -3.2738412e+02
   1.0090000e+06   1.9000000e+04  -3.2738412e+02
   1.0090000e+06   2.0000000e+04  -3.2738412e+02
   1.0090000e+06   2.1000000e+04  -3.2738412e+02
   1.0090000e+06   2.2000000e+04  -3.2738412e+02
   1.0090000e+06   2.3000000e+04  -3.2738412e+02
   1.0090000e+06   2.4000000e+04  -3.2738412e+02
   1.0090000e+06   2.5000000e+04  -3.2738412e+02
   1.0100000e+06  -2.5000000e+04  -3.2842804e+02
   1.0100000e+06  -2.4000000e+04  -3.2842804e+02
   1.0100000e+06  -2.3000000e+04  -3.2842804e+02
   1.0100000e+06  -2.2000000e+04  -3.2842804e+02
   1.0100000e+06  -2.1000000e+04  -3.2842804e+02
   1.0100000e+06  -2.0000000e+04  -3.2842804e+02
   1.0100000e+06  -1.9000000e+04  -3.2842804e+02
   1.0100000e+06  -1.8000000e+04  -3.2842804e+02
   1.0100000e+06  -1.7000000e+04  -3.2842804e+02
   1.0100000e+06  -1.6000000e+04  -3.2842804e+02
   1.0100000e+06  -1.5000000e+04  -3.2842804e+02
   1.0100000e+06  -1.4000000e+04  -3.2842804e+02
   1.0100000e+06  -1.3000000e+04  -3.2842804e+02
   1.0100000e+06  -1.2000000e+04  -3.2842804e+02
   1.0100000e+06  -1.1000000e+04  -3.2842804e+02
   1.0100000e+06  -1.0000000e+04  -3.2842804e+02
   1.0100000e+06  -9.0000000e+03  -3.2842804e+02
   1.0100000e+06  -8.0000000e+03  -3.2842804e+02
   1.0100000e+06  -7.0000000e+03  -3.2842804e+02
   1.0100000e+06  -6.0000000e+03  -3.2842804e+02
   1.0100000e+06  -5.0000000e+03  -3.2842804e+02
   1.0100000e+06  -4.0000000e+03  -3.2842804e+02
   1.0100000e+06  -3.0000000e+03  -3.2842804e+02
   1.0100000e+06  -2.0000000e+03  -3.2842804e+02
   1.0100000e+06  -1.0000000e+03  -3.2842804e+02
   1.0100000e+06   0.0000000e+00  -3.2842804e+02
   1.0100000e+06   1.0000000e+03  -3.2842804e+02
   1.0100000e+06   2.0000000e+03  -3.2842804e+02
   1.0100000e+06   3.0000000e+03  -3.2842804e+02
   1.0100000e+06   4.0000000e+03  -3.2842804e+02
   1.0100000e+06   5.0000000e+03  -3.2842804e+02
   1.0100000e+06   6.0000000e+03  -3.2842804e+02
   1.0100000e+06   7.0000000e+03  -3.2842804e+02
   1.0100000e+06   8.0000000e+03  -3.2842804e+02
   1.0100000e+06   9.0000000e+03  -3.2842804e+02
   1.0100000e+06   1.0000000e+04  -3.2842804e+02
   1.0100000e+06   1.1000000e+04  -3.2842804e+02
   1.0100000e+06   1.2000000e+04  -3.2842804e+02
   1.0100000e+06   1.3000000e+04  -3.2842804e+02
   1.0100000e+06   1.4000000e+04  -3.2842804e+02
   1.0100000e+06   1.5000000e+04  -3.2842804e+02
   1.0100000e+06   1.6000000e+04  -3.2842804e+02
   1.0100000e+06   1.7000000e+04  -3.2842804e+02
   1.0100000e+06   1.8000000e+04  -3.2842804e+02
   1.0100000e+06   1.9000000e+04  -3.2842804e+02
   1.0100000e+06   2.0000000e+04  -3.2842804e+02
   1.0100000e+06   2.1000000e+04  -3.2842804e+02
   1.0100000e+06   2.2000000e+04  -3.2842804e+02
   1.0100000e+06   2.3000000e+04  -3.2842804e+02
   1.0100000e+06   2.4000000e+04  -3.2842804e+02
   1.0100000e+06   2.5000000e+04  -3.2842804e+02
   1.0110000e+06  -2.5000000e+04  -3.2946552e+02
   1.0110000e+06  -2.4000000e+04  -3.2946552e+02
   1.0110000e+06  -2.3000000e+04  -3.2946552e+02
   1.0110000e+06  -2.2000000e+04  -3.2946552e+02
   1.0110000e+06  -2.1000000e+04  -3.2946552e+02
   1.0110000e+06  -2.0000000e+04  -3.2946552e+02
   1.0110000e+06  -1.9000000e+04  -3.2946552e+02
   1.0110000e+06  -1.8000000e+04  -3.2946552e+02
   1.0110000e+06  -1.7000000e+04  -3.2946552e+02
   1.0110000e+06  -1.6000000e+04  -3.2946552e+02
   1.0110000e+06  -1.5000000e+04  -3.2946552e+02
   1.0110000e+06  -1.4000000e+04  -3.2946552e+02
   1.0110000e+06  -1.3000000e+04  -3.2946552e+02
   1.0110000e+06  -1.2000000e+04  -3.2946552e+02
   1.0110000e+06  -1.1000000e+04  -3.2946552e+02
   1.0110000e+06  -1.0000000e+04  -3.2946552e+02
   1.0110000e+06  -9.0000000e+03  -3.2946552e+02
   1.0110000e+06  -8.0000000e+03  -3.2946552e+02
   1.0110000e+06  -7.0000000e+03  -3.2946552e+02
   1.0110000e+06  -6.0000000e+03  -3.2946552e+02
   1.0110000e+06  -5.0000000e+03  -3.2946552e+02
   1.0110000e+06  -4.0000000e+03  -3.2946552e+02
   1.0110000e+06  -3.0000000e+03  -3.2946552e+02
   1.0110000e+06  -2.0000000e+03  -3.2946552e+02
   1.0110000e+06  -1.0000000e+03  -3.2946552e+02
   1.0110000e+06   0.0000000e+00  -3.2946552e+02
   1.0110000e+06   1.0000000e+03  -3.2946552e+02
   1.0110000e+06   2.0000000e+03  -3.2946552e+02
   1.0110000e+06   3.0000000e+03  -3.2946552e+02
   1.0110000e+06   4.0000000e+03  -3.2946552e+02
   1.0110000e+06   5.0000000e+03  -3.2946552e+02
   1.0110000e+06   6.0000000e+03  -3.2946552e+02
   1.0110000e+06   7.0000000e+03  -3.2946552e+02
   1.0110000e+06   8.0000000e+03  -3.2946552e+02
   1.0110000e+06   9.0000000e+03  -3.2946552e+02
   1.0110000e+06   1.0000000e+04  -3.2946552e+02
   1.0110000e+06   1.1000000e+04  -3.2946552e+02
   1.0110000e+06   1.2000000e+04  -3.2946552e+02
   1.0110000e+06   1.3000000e+04  -3.2946552e+02
   1.0110000e+06   1.4000000e+04  -3.2946552e+02
   1.0110000e+06   1.5000000e+04  -3.2946552e+02
   1.0110000e+06   1.6000000e+04  -3.2946552e+02
   1.0110000e+06   1.7000000e+04  -3.2946552e+02
   1.0110000e+06   1.8000000e+04  -3.2946552e+02
   1.0110000e+06   1.9000000e+04  -3.2946552e+02
